ply
format ascii 1.0
element vertex 966
property float32 x
property float32 y
property float32 z
property float32 CosAngle
property uint32 ObjIdx
property uint32 ObjTag
end_header
196.283325 -135.268524 139.423645 0.750591 26489 4
196.476532 -125.247162 136.278534 0.767914 26489 4
196.645782 -115.646530 133.429489 0.784310 26489 4
205.757233 -111.266777 136.812744 0.326771 26489 4
228.155792 -112.992317 148.912155 0.300220 26489 4
255.056549 -115.108948 163.666489 0.273156 26489 4
288.069214 -117.755447 182.019608 0.245613 26489 4
410.411224 92.694847 246.088348 0.349785 26495 2
395.676758 104.421967 239.347397 0.615028 26495 2
389.125000 117.781891 237.789322 0.734613 26495 2
387.862885 132.770462 239.776947 0.570983 26495 2
396.824890 151.955338 248.530182 0.244334 26495 2
196.553879 -210.127808 145.178986 0.643175 26489 4
196.883820 -195.890930 140.136856 0.666317 26489 4
197.176010 -182.578705 135.591049 0.688656 26489 4
197.434677 -170.073517 131.484497 0.710164 26489 4
197.663345 -158.276764 127.769417 0.730813 26489 4
197.865005 -147.103760 124.405228 0.750576 26489 4
198.042206 -136.480621 121.357109 0.769428 26489 4
198.197083 -126.344002 118.595535 0.787345 26489 4
198.331497 -116.637894 116.094933 0.804303 26489 4
198.447021 -107.313637 113.833534 0.820282 26489 4
218.340576 -108.131393 122.938377 0.324471 26489 4
243.047974 -109.689423 134.545624 0.296479 26489 4
273.064880 -111.622009 148.847488 0.267992 26489 4
198.816254 -197.813538 120.355011 0.679182 26489 4
199.047943 -184.311996 116.413879 0.702175 26489 4
199.251770 -171.638809 112.855728 0.724314 26489 4
199.430695 -159.691910 109.638443 0.745568 26489 4
199.587158 -148.384140 106.726562 0.765910 26489 4
199.723312 -137.639175 104.089371 0.785315 26489 4
199.840897 -127.391830 101.701118 0.803757 26489 4
199.941467 -117.584717 99.539307 0.821213 26489 4
200.026306 -108.167679 97.584961 0.837659 26489 4
209.860214 -103.931564 100.497063 0.347478 26489 4
232.754440 -105.043869 109.583633 0.318665 26489 4
260.328033 -106.415543 120.688766 0.289343 26489 4
294.280884 -108.140190 134.542526 0.259550 26489 4
176.578461 -30.800362 76.919861 0.541770 26487 0
172.786453 -23.785440 74.847740 0.781438 26487 0
171.195755 -17.333395 73.841476 0.876664 26487 0
170.576370 -11.105173 73.355042 0.899743 26487 0
170.724380 -4.972726 73.294670 0.905845 26487 0
171.780396 1.163664 73.718491 0.874270 26487 0
173.929321 7.425561 74.706932 0.823506 26487 0
179.345490 14.118270 77.201309 0.409112 26487 0
177.325348 116.447212 91.037262 0.297105 26501 2
167.790176 119.017082 88.279167 0.437139 26501 2
161.449860 123.461716 87.219604 0.461866 26501 2
157.024704 129.265869 87.280396 0.448399 26501 2
154.487473 136.767303 88.542740 0.397462 26501 2
154.875580 147.356628 91.738724 0.311788 26501 2
200.683868 -199.671814 101.236877 0.689442 26489 4
200.855942 -185.986176 97.891663 0.713002 26489 4
201.005829 -173.149765 94.873238 0.735686 26489 4
201.135849 -161.057312 92.145493 0.757464 26489 4
201.247955 -149.618851 89.677811 0.778308 26489 4
201.343826 -138.755920 87.443924 0.798191 26489 4
201.424866 -128.401581 85.421707 0.817087 26489 4
201.492294 -118.496750 83.591858 0.834973 26489 4
181.910980 -98.371529 73.955193 0.189779 26491 4
184.171722 -91.209572 73.495422 0.913820 26491 4
189.097809 -85.341293 74.190498 0.905258 26491 4
194.124802 -79.353325 74.996490 0.895529 26491 4
199.269257 -73.225998 75.919205 0.884645 26491 4
204.549118 -66.937927 76.965408 0.872620 26491 4
209.984009 -60.465797 78.143051 0.859469 26491 4
215.595551 -53.783848 79.461418 0.845210 26491 4
176.021820 -30.703266 63.897118 0.556876 26487 0
172.336365 -23.723482 62.209934 0.802786 26487 0
170.784134 -17.291721 61.385910 0.900432 26487 0
170.177811 -11.079224 60.985672 0.924074 26487 0
170.333084 -4.961331 60.938194 0.930300 26487 0
171.396790 1.161069 61.294163 0.897819 26487 0
173.541885 7.409022 62.116394 0.845683 26487 0
178.969452 14.088670 64.198792 0.420074 26487 0
187.535614 104.721291 76.811638 0.316355 26501 2
174.526093 105.846054 72.992844 0.573739 26501 2
166.133331 109.097565 71.075333 0.694251 26501 2
159.667267 113.255325 70.003769 0.772259 26501 2
154.380844 118.056030 69.499832 0.803576 26501 2
149.974823 123.462296 69.467346 0.786520 26501 2
146.740372 129.908905 70.084686 0.779592 26501 2
144.431946 137.419983 71.292976 0.707992 26501 2
143.472198 146.669876 73.371658 0.593150 26501 2
146.605560 161.049103 77.881226 0.198928 26501 2
33.560444 260.131622 93.795937 0.228071 26497 2
23.611412 254.774811 91.499741 0.503076 26497 2
14.414344 254.765762 91.251785 0.515649 26497 2
5.347898 259.247345 92.728455 0.274259 26497 2
-13.721794 258.261780 74.790573 0.464592 26497 2
202.503601 -201.482376 82.608940 0.697059 26489 4
202.616531 -187.616425 79.855301 0.721095 26489 4
202.712936 -174.620331 77.372131 0.744238 26489 4
202.794525 -162.385483 75.129257 0.766456 26489 4
211.333740 -157.117188 76.153625 0.312832 26489 4
222.061172 -153.033325 77.988770 0.305471 26489 4
233.059616 -148.567673 79.926407 0.298066 26489 4
216.251419 -127.176575 72.549271 0.159604 26491 4
182.020966 -98.431000 59.841076 0.193499 26491 4
184.125610 -91.186722 59.418236 0.932527 26491 4
189.050003 -85.319710 59.980034 0.923792 26491 4
194.075180 -79.333054 60.631485 0.913866 26491 4
199.217682 -73.207077 61.377258 0.902762 26491 4
204.495468 -66.920380 62.222839 0.890494 26491 4
209.928101 -60.449699 63.174667 0.877077 26491 4
215.537201 -53.769276 64.240166 0.862530 26491 4
221.346512 -46.850857 65.428085 0.846870 26491 4
175.492599 -30.610958 51.515907 0.569847 26487 0
171.907990 -23.664503 50.181896 0.821055 26487 0
170.392227 -17.252041 49.526665 0.920748 26487 0
169.798279 -11.054517 49.206932 0.944862 26487 0
169.960419 -4.950480 49.170708 0.951188 26487 0
171.031418 1.158591 49.460716 0.917926 26487 0
173.172882 7.393266 50.124481 0.864618 26487 0
178.611191 14.060464 51.811325 0.429426 26487 0
198.383163 101.617371 64.457581 0.323263 26501 2
181.260147 101.217056 60.036297 0.518594 26501 2
171.231537 103.848038 57.912453 0.684626 26501 2
163.839279 107.591042 56.682400 0.812441 26501 2
157.916885 112.013779 55.988949 0.949376 26501 2
152.882233 116.910042 55.656448 0.982591 26501 2
148.503204 122.250832 55.624535 0.983155 26501 2
145.123581 128.477524 56.050526 0.957154 26501 2
142.438080 135.522919 56.856213 0.827015 26501 2
140.776581 143.914185 58.218246 0.705213 26501 2
140.871368 154.749969 60.516407 0.544091 26501 2
147.749008 174.493866 66.120132 0.173806 26501 2
172.157623 254.408951 88.832848 0.292896 26499 2
156.130600 249.574646 85.132355 0.490677 26499 2
144.852463 251.164703 83.846443 0.695585 26499 2
135.719543 256.151184 83.830124 0.700746 26499 2
128.229919 264.549377 85.016861 0.499871 26499 2
123.473343 279.905884 88.470039 0.309237 26499 2
52.147469 257.131226 75.872055 0.405119 26497 2
41.125519 248.207809 72.756378 0.648998 26497 2
31.486904 244.059372 71.163055 0.758369 26497 2
22.473309 242.494247 70.426003 0.822709 26497 2
13.739607 242.840546 70.337952 0.838563 26497 2
5.054350 245.016068 70.869858 0.805080 26497 2
-3.808178 249.430664 72.139809 0.724057 26497 2
-13.184978 257.498993 74.562195 0.466015 26497 2
-13.447372 253.097168 56.563801 0.695853 26497 2
-23.833893 267.166016 59.860695 0.358707 26497 2
263.466705 -195.875732 73.267624 0.254941 26489 4
278.495972 -191.925293 75.481956 0.247462 26489 4
294.146973 -187.508759 77.848854 0.239939 26489 4
216.404358 -127.266479 56.027943 0.162040 26491 4
182.127213 -98.488419 46.208023 0.196477 26491 4
184.081146 -91.164688 45.843681 0.947658 26491 4
189.003922 -85.298897 46.277035 0.938784 26491 4
194.027359 -79.313499 46.779526 0.928700 26491 4
199.167984 -73.188812 47.354759 0.917418 26491 4
204.443741 -66.903450 48.006996 0.904954 26491 4
209.874191 -60.434162 48.741177 0.891323 26491 4
215.480896 -53.755238 49.563049 0.876543 26491 4
221.287628 -46.838409 50.479301 0.860633 26491 4
174.993515 -30.523895 39.643330 0.726265 26487 0
171.503952 -23.608887 38.635796 0.891871 26487 0
170.015823 -17.213932 38.136719 0.937533 26487 0
169.433731 -11.030776 37.892887 0.962027 26487 0
169.602448 -4.940050 37.866528 0.968428 26487 0
170.680405 1.156214 38.091919 0.934514 26487 0
172.818344 7.378129 38.603306 0.880237 26487 0
178.266907 14.033359 39.907211 0.437131 26487 0
325.889771 111.556259 76.872543 0.528115 26503 2
314.615814 120.475174 75.185165 0.823514 26503 2
307.857086 130.739365 74.643776 0.867673 26503 2
304.388031 142.367249 74.993851 0.818121 26503 2
198.077011 101.460548 49.666977 0.377210 26501 2
182.220810 101.753448 46.577278 0.596249 26501 2
172.711487 104.745544 45.078968 0.758509 26501 2
165.441376 108.643127 44.171188 0.883421 26501 2
159.463867 113.111069 43.631554 0.964279 26501 2
154.373184 118.050171 43.370564 0.996740 26501 2
149.978973 123.465729 43.353649 0.979061 26501 2
146.526581 129.719574 43.673981 0.971880 26501 2
143.761246 136.781830 44.285149 0.897665 26501 2
141.870682 145.032593 45.277882 0.778630 26501 2
141.470093 155.407669 46.900761 0.601567 26501 2
146.572861 173.104858 50.620651 0.225364 26501 2
179.374680 245.600433 67.873138 0.342715 26499 2
163.190704 241.157822 64.984116 0.725978 26499 2
151.129547 241.580383 63.594643 0.848755 26499 2
140.990692 244.468628 62.981636 0.949583 26499 2
132.113953 249.346100 62.975399 0.930728 26499 2
124.216492 256.269135 63.556408 0.860758 26499 2
117.343018 266.008881 64.885086 0.743428 26499 2
112.244583 281.386719 67.609421 0.366629 26499 2
64.756775 269.298523 61.812988 0.223665 26497 2
50.925499 251.105728 57.180557 0.592149 26497 2
40.540432 244.676605 55.349369 0.791522 26497 2
31.169668 241.600403 54.365250 0.907040 26497 2
22.286039 240.473587 53.896881 0.974996 26497 2
13.628778 240.881165 53.843842 0.991741 26497 2
5.008146 242.777542 54.192612 0.956375 26497 2
-3.762400 246.437134 55.004219 0.870800 26497 2
-12.937473 252.665771 56.461731 0.697111 26497 2
-23.209156 265.937866 59.575401 0.360424 26497 2
-13.645103 256.819641 40.882034 0.605542 26497 2
-24.205078 271.326752 43.301815 0.415202 26497 2
216.553497 -127.354172 39.935280 0.163855 26491 4
182.230774 -98.544434 32.931915 0.198701 26491 4
184.037903 -91.143280 32.646027 0.959156 26491 4
188.959091 -85.278687 32.954536 0.950177 26491 4
193.980865 -79.294479 33.312286 0.939972 26491 4
199.119659 -73.171043 33.721836 0.928557 26491 4
204.393463 -66.886993 34.186165 0.915944 26491 4
209.821777 -60.419071 34.708862 0.902151 26491 4
215.426178 -53.741600 35.293980 0.887195 26491 4
221.230392 -46.826298 35.946262 0.871095 26491 4
174.551437 -30.446781 28.165930 0.736766 26487 0
171.120819 -23.556149 27.458153 0.904501 26487 0
169.651276 -17.177023 27.105906 0.950724 26487 0
169.080627 -11.007790 26.934219 0.975504 26487 0
169.256668 -4.929978 26.916714 0.975125 26487 0
170.340347 1.153909 27.078186 0.947518 26487 0
172.474884 7.363465 27.441845 0.892482 26487 0
177.933304 14.007096 28.372065 0.443160 26487 0
336.978699 101.998055 55.966724 0.560882 26503 2
320.883240 109.842484 53.913841 0.851313 26503 2
311.327454 119.215988 52.993412 0.947837 26503 2
304.950562 129.505035 52.665577 0.994290 26503 2
301.246490 140.897903 52.865582 0.942163 26503 2
300.662659 154.007736 53.699013 0.841984 26503 2
188.870056 105.466461 34.386826 0.571396 26501 2
177.978104 107.939621 33.088150 0.722815 26501 2
169.935654 111.594482 32.317131 0.839382 26501 2
163.519958 115.988144 31.868528 0.914837 26501 2
158.211548 120.985390 31.660236 0.945129 26501 2
153.776764 126.592133 31.662033 0.928632 26501 2
150.219025 132.988480 31.892181 0.921930 26501 2
147.589325 140.424072 32.383537 0.852674 26501 2
146.056198 149.311432 33.202164 0.741591 26501 2
146.840912 161.307602 34.674911 0.448232 26501 2
178.556702 244.480453 48.124489 0.606593 26499 2
163.348785 241.391510 46.331963 0.772689 26499 2
151.503586 242.178314 45.409531 0.892195 26499 2
141.399673 245.177765 44.990902 0.990336 26499 2
132.505310 250.084778 44.989243 0.971984 26499 2
124.525543 256.906952 45.382835 0.903878 26499 2
117.469437 266.295410 46.266373 0.789674 26499 2
111.810226 280.297821 47.970699 0.628813 26499 2
66.582474 276.891022 45.269691 0.100688 26497 2
51.707481 254.961731 41.354206 0.642425 26497 2
41.130718 248.239212 39.998482 0.795123 26497 2
31.589836 244.857178 39.245468 0.907564 26497 2
22.573423 243.574188 38.884853 0.973709 26497 2
13.802118 243.944824 38.839874 0.990008 26497 2
5.072883 245.915588 39.099442 0.955585 26497 2
-3.813364 249.772263 39.708824 0.872289 26497 2
-13.125633 256.341309 40.801800 0.744591 26497 2
-23.588551 270.284515 43.128166 0.416874 26497 2
-14.402020 271.064941 26.060307 0.387295 26497 2
216.699921 -127.440277 24.135265 0.165041 26491 4
182.332443 -98.599434 19.900364 0.200163 26491 4
183.995514 -91.122299 19.712061 0.966977 26491 4
188.915176 -85.258865 19.898306 0.957926 26491 4
193.935272 -79.275856 20.114265 0.947641 26491 4
199.072311 -73.153641 20.361492 0.936135 26491 4
204.344177 -66.870865 20.641808 0.923422 26491 4
209.770416 -60.404274 20.957315 0.909520 26491 4
215.372559 -53.728207 21.310530 0.894445 26491 4
221.174301 -46.814426 21.704281 0.878218 26491 4
174.120148 -30.371555 16.968840 0.744441 26487 0
170.746826 -23.504669 16.547134 0.913662 26487 0
169.295380 -17.140984 16.336311 0.960270 26487 0
168.735825 -10.985343 16.233788 0.985240 26487 0
168.923538 -4.920274 16.224384 0.984787 26487 0
170.008240 1.151660 16.322018 0.956889 26487 0
172.139450 7.349143 16.541302 0.901304 26487 0
177.607422 13.981446 17.103998 0.447490 26487 0
347.868713 105.294235 34.893555 0.380699 26503 2
327.752289 112.193810 33.258366 0.687839 26503 2
317.174866 121.455116 32.606552 0.878670 26503 2
310.518005 131.869446 32.388149 0.920204 26503 2
306.977142 143.578217 32.535618 0.873596 26503 2
306.751129 157.126419 33.088326 0.784023 26503 2
312.803619 174.671860 34.395580 0.519600 26503 2
188.987320 114.616501 21.219749 0.522933 26501 2
178.693695 117.345749 20.523861 0.560060 26501 2
171.180267 121.421799 20.148693 0.640372 26501 2
165.437408 126.511063 19.994549 0.706666 26501 2
160.920563 132.473053 20.010670 0.694683 26501 2
157.526505 139.457779 20.198303 0.649358 26501 2
155.423523 147.877945 20.596237 0.573125 26501 2
155.757721 159.229187 21.384464 0.416366 26501 2
189.054962 258.854706 30.773708 0.264661 26499 2
168.669495 249.254272 28.893705 0.598407 26499 2
155.883163 249.178986 28.217924 0.750986 26499 2
145.253265 251.859634 27.912844 0.811358 26499 2
136.098785 256.866913 27.908169 0.816050 26499 2
128.084534 264.249237 28.192366 0.760513 26499 2
121.246773 274.858398 28.841139 0.617709 26499 2
117.960678 295.716766 30.565662 0.288914 26499 2
55.028385 271.336426 26.579979 0.281490 26497 2
42.898796 258.910248 25.195574 0.568452 26497 2
32.781506 254.093933 24.596474 0.763519 26497 2
23.382130 252.300690 24.325935 0.817456 26497 2
14.289707 252.562714 24.286072 0.830747 26497 2
5.256773 254.830002 24.470165 0.747732 26497 2
-3.970013 260.030701 24.967171 0.648879 26497 2
-13.833061 270.156342 25.970356 0.388636 26497 2
216.844940 -127.525589 8.501205 0.165595 26491 4
182.432953 -98.653763 7.008688 0.200858 26491 4
183.953674 -91.101562 6.936987 0.971089 26491 4
188.871796 -85.239288 7.002514 0.962002 26491 4
193.890259 -79.257454 7.078497 0.951676 26491 4
199.025513 -73.136459 7.165464 0.940123 26491 4
204.295502 -66.854942 7.264084 0.927360 26491 4
209.719681 -60.389679 7.375093 0.913401 26491 4
215.319580 -53.715008 7.499378 0.898266 26491 4
221.118912 -46.802700 7.637907 0.881974 26491 4
173.696075 -30.297588 5.958399 0.749262 26487 0
170.378860 -23.454016 5.811985 0.919321 26487 0
168.945145 -17.105528 5.738419 0.966133 26487 0
168.396500 -10.963252 5.702736 0.991199 26487 0
168.595627 -4.910723 5.699831 0.990674 26487 0
169.681335 1.149446 5.734238 0.962591 26487 0
171.809265 7.335048 5.811304 0.906671 26487 0
177.286560 13.956185 6.009649 0.450104 26487 0
339.165771 129.876053 12.273170 0.387078 26503 2
329.759277 140.040741 12.106949 0.500769 26503 2
327.451630 153.154480 12.216255 0.436413 26503 2
183.882202 140.615906 7.822685 0.297536 26501 2
179.069626 147.413712 7.838085 0.301359 26501 2
170.606979 272.715302 10.870747 0.265098 26499 2
156.085175 270.641449 10.557915 0.490349 26499 2
146.190140 275.912964 10.551968 0.493227 26499 2
139.865112 288.553497 10.836300 0.276737 26499 2
36.835182 285.514679 9.728485 0.080521 26497 2
25.470821 274.838379 9.327530 0.302167 26497 2
15.538851 274.640564 9.295891 0.315495 26497 2
5.800497 281.187836 9.504322 0.174944 26497 2
216.989471 -127.610596 -7.088224 0.165513 26491 4
182.533081 -98.707909 -5.843122 0.200783 26491 4
183.911987 -91.080948 -5.778833 0.971479 26491 4
188.828613 -85.219795 -5.833406 0.962390 26491 4
193.845444 -79.239151 -5.896700 0.952062 26491 4
198.978973 -73.119324 -5.969137 0.940507 26491 4
204.247055 -66.839088 -6.051287 0.927741 26491 4
209.669189 -60.375126 -6.143724 0.913780 26491 4
215.266876 -53.701843 -6.247213 0.898643 26491 4
221.063782 -46.791019 -6.362616 0.882348 26491 4
173.275803 -30.224281 -4.952738 0.751210 26487 0
170.014008 -23.403786 -4.832369 0.921454 26487 0
168.597824 -17.070358 -4.771624 0.968292 26487 0
168.059952 -10.941340 -4.742216 0.993357 26487 0
168.270355 -4.901250 -4.740141 0.992762 26487 0
169.357056 1.147249 -4.768835 0.964602 26487 0
171.481720 7.321065 -4.832952 0.908561 26487 0
176.968201 13.931127 -4.998457 0.450993 26487 0
-11.747802 221.108536 -20.000000 0.089960 26493 5
-19.674784 220.544556 -20.000000 0.089960 26493 5
-27.576412 219.696487 -20.000000 0.089960 26493 5
-35.442436 218.565384 -20.000000 0.089960 26493 5
-43.262966 217.152740 -20.000000 0.089960 26493 5
-51.027679 215.460403 -20.000000 0.089960 26493 5
-58.726688 213.490479 -20.000000 0.089960 26493 5
-66.350021 211.245529 -20.000000 0.089960 26493 5
-73.887878 208.728485 -20.000000 0.089960 26493 5
-81.330482 205.942612 -20.000000 0.089960 26493 5
-88.668297 202.891388 -20.000000 0.089960 26493 5
-95.892075 199.578842 -20.000000 0.089960 26493 5
-102.992195 196.009216 -20.000000 0.089960 26493 5
-109.959793 192.186996 -20.000000 0.089960 26493 5
-116.785744 188.117233 -20.000000 0.089960 26493 5
-123.461090 183.805222 -20.000000 0.089960 26493 5
-129.977432 179.256454 -20.000000 0.089960 26493 5
-136.326340 174.476776 -20.000000 0.089960 26493 5
-142.499649 169.472290 -20.000000 0.089960 26493 5
-148.489532 164.249405 -20.000000 0.089960 26493 5
-154.287964 158.815048 -20.000000 0.089960 26493 5
-159.887756 153.176117 -20.000000 0.089960 26493 5
-165.281418 147.339966 -20.000000 0.089960 26493 5
-170.462341 141.313828 -20.000000 0.089960 26493 5
-175.423660 135.105698 -20.000000 0.089960 26493 5
-180.158951 128.723526 -20.000000 0.089960 26493 5
-184.662140 122.175690 -20.000000 0.089960 26493 5
-188.927521 115.470337 -20.000000 0.089960 26493 5
-192.949509 108.616287 -20.000000 0.089960 26493 5
-196.722977 101.622261 -20.000000 0.089960 26493 5
-200.243073 94.497215 -20.000000 0.089960 26493 5
-203.505127 87.250641 -20.000000 0.089960 26493 5
-206.505066 79.891632 -20.000000 0.089960 26493 5
-209.238968 72.429680 -20.000000 0.089960 26493 5
-211.703339 64.874542 -20.000000 0.089960 26493 5
-213.894989 57.235836 -20.000000 0.089960 26493 5
-215.811142 49.523209 -20.000000 0.089960 26493 5
-217.449310 41.746922 -20.000000 0.089960 26493 5
-218.807388 33.916794 -20.000000 0.089960 26493 5
-219.883560 26.043047 -20.000000 0.089960 26493 5
-220.676483 18.135643 -20.000000 0.089960 26493 5
-221.185135 10.204874 -20.000000 0.089960 26493 5
-221.408875 2.261117 -20.000000 0.089960 26493 5
-221.347427 -5.685760 -20.000000 0.089960 26493 5
-221.000809 -13.625204 -20.000000 0.089960 26493 5
-220.369522 -21.547201 -20.000000 0.089960 26493 5
-219.454391 -29.441362 -20.000000 0.089960 26493 5
-218.256516 -37.297493 -20.000000 0.089960 26493 5
-216.777512 -45.105659 -20.000000 0.089960 26493 5
-215.019272 -52.855667 -20.000000 0.089960 26493 5
-212.984024 -60.537739 -20.000000 0.089960 26493 5
-210.674408 -68.141754 -20.000000 0.089960 26493 5
-208.093491 -75.657776 -20.000000 0.089960 26493 5
-205.244476 -83.076523 -20.000000 0.089960 26493 5
-202.131073 -90.388206 -20.000000 0.089960 26493 5
-198.757324 -97.583496 -20.000000 0.089960 26493 5
-195.127411 -104.653267 -20.000000 0.089960 26493 5
-191.246185 -111.588074 -20.000000 0.089960 26493 5
-187.118622 -118.379089 -20.000000 0.089960 26493 5
-182.750107 -125.017578 -20.000000 0.089960 26493 5
-178.146194 -131.495010 -20.000000 0.089960 26493 5
-173.312683 -137.803131 -20.000000 0.089960 26493 5
-168.255875 -143.933853 -20.000000 0.089960 26493 5
-162.982422 -149.879059 -20.000000 0.089960 26493 5
-157.499084 -155.631104 -20.000000 0.089960 26493 5
-151.812790 -161.182770 -20.000000 0.089960 26493 5
-145.930893 -166.526825 -20.000000 0.089960 26493 5
-139.860992 -171.656433 -20.000000 0.089960 26493 5
-133.610916 -176.564819 -20.000000 0.089960 26493 5
-127.188858 -181.245743 -20.000000 0.089960 26493 5
-120.602966 -185.693115 -20.000000 0.089960 26493 5
-113.861542 -189.901428 -20.000000 0.089960 26493 5
-106.973648 -193.865051 -20.000000 0.089960 26493 5
-99.947746 -197.579010 -20.000000 0.089960 26493 5
-92.793266 -201.038391 -20.000000 0.089960 26493 5
-85.519241 -204.238770 -20.000000 0.089960 26493 5
-78.135017 -207.176086 -20.000000 0.089960 26493 5
-70.650169 -209.846527 -20.000000 0.089960 26493 5
-63.074280 -212.246689 -20.000000 0.089960 26493 5
-55.417164 -214.373383 -20.000000 0.089960 26493 5
-47.688557 -216.223999 -20.000000 0.089960 26493 5
-39.898571 -217.796051 -20.000000 0.089960 26493 5
-32.057156 -219.087555 -20.000000 0.089960 26493 5
-24.174519 -220.096817 -20.000000 0.089960 26493 5
-16.260790 -220.822556 -20.000000 0.089960 26493 5
-8.326012 -221.263840 -20.000000 0.089960 26493 5
-0.380503 -221.420105 -20.000000 0.089960 26493 5
7.565309 -221.291168 -20.000000 0.089960 26493 5
15.501540 -220.877167 -20.000000 0.089960 26493 5
23.417774 -220.178604 -20.000000 0.089960 26493 5
31.303928 -219.196411 -20.000000 0.089960 26493 5
39.149704 -217.931839 -20.000000 0.089960 26493 5
46.945076 -216.386612 -20.000000 0.089960 26493 5
54.679928 -214.562592 -20.000000 0.089960 26493 5
62.344334 -212.462204 -20.000000 0.089960 26493 5
69.928444 -210.088104 -20.000000 0.089960 26493 5
77.422318 -207.443451 -20.000000 0.089960 26493 5
84.816566 -204.531555 -20.000000 0.089960 26493 5
92.101624 -201.356140 -20.000000 0.089960 26493 5
99.268021 -197.921371 -20.000000 0.089960 26493 5
106.306488 -194.231659 -20.000000 0.089960 26493 5
113.208122 -190.291687 -20.000000 0.089960 26493 5
119.963928 -186.106567 -20.000000 0.089960 26493 5
126.565147 -181.681793 -20.000000 0.089960 26493 5
133.003250 -177.023026 -20.000000 0.089960 26493 5
139.270081 -172.136093 -20.000000 0.089960 26493 5
145.357605 -167.027481 -20.000000 0.089960 26493 5
151.257843 -161.703629 -20.000000 0.089960 26493 5
156.963196 -156.171570 -20.000000 0.089960 26493 5
162.466217 -150.438507 -20.000000 0.089960 26493 5
167.760162 -144.511368 -20.000000 0.089960 26493 5
172.837997 -138.398102 -20.000000 0.089960 26493 5
177.693024 -132.106781 -20.000000 0.089960 26493 5
182.319244 -125.645157 -20.000000 0.089960 26493 5
186.710617 -119.021667 -20.000000 0.089960 26493 5
190.861481 -112.244827 -20.000000 0.089960 26493 5
182.633850 -98.762421 -18.754183 0.199937 26491 4
183.870209 -91.060242 -18.533407 0.968143 26491 4
188.785309 -85.200264 -18.708391 0.959088 26491 4
193.800507 -79.220772 -18.911303 0.948797 26491 4
198.932281 -73.102180 -19.143579 0.937285 26491 4
204.198471 -66.823174 -19.406927 0.924566 26491 4
212.774689 -61.269386 -20.000000 0.089960 26493 5
214.836319 -53.594433 -20.000000 0.089960 26493 5
216.621140 -45.850700 -20.000000 0.089960 26493 5
172.856110 -30.151081 -15.849138 0.750278 26487 0
169.649445 -23.353603 -15.468275 0.920055 26487 0
168.250702 -17.035217 -15.275106 0.966739 26487 0
167.723572 -10.919440 -15.181871 0.991707 26487 0
167.945206 -4.891778 -15.176245 0.991044 26487 0
169.032867 1.145052 -15.268415 0.962915 26487 0
171.154282 7.307084 -15.473757 0.906967 26487 0
176.649857 13.906064 -16.005434 0.450152 26487 0
219.971832 25.286751 -20.000000 0.089960 26493 5
218.922699 33.164246 -20.000000 0.089960 26493 5
217.591583 40.999023 -20.000000 0.089960 26493 5
215.980164 48.780956 -20.000000 0.089960 26493 5
214.090561 56.500038 -20.000000 0.089960 26493 5
211.925140 64.146339 -20.000000 0.089960 26493 5
209.486740 71.710007 -20.000000 0.089960 26493 5
206.778503 79.181267 -20.000000 0.089960 26493 5
203.803864 86.550545 -20.000000 0.089960 26493 5
200.566742 93.808334 -20.000000 0.089960 26493 5
197.071198 100.945312 -20.000000 0.089960 26493 5
193.321793 107.952339 -20.000000 0.089960 26493 5
189.323364 114.820267 -20.000000 0.089960 26493 5
185.081039 121.540222 -20.000000 0.089960 26493 5
180.600342 128.103622 -20.000000 0.089960 26493 5
175.887024 134.501938 -20.000000 0.089960 26493 5
170.947083 140.727097 -20.000000 0.089960 26493 5
165.787033 146.770859 -20.000000 0.089960 26493 5
160.413391 152.625565 -20.000000 0.089960 26493 5
154.832962 158.283798 -20.000000 0.089960 26493 5
149.053329 163.737930 -20.000000 0.089960 26493 5
143.081406 168.981369 -20.000000 0.089960 26493 5
136.925262 174.007095 -20.000000 0.089960 26493 5
130.593063 178.808441 -20.000000 0.089960 26493 5
124.092346 183.379639 -20.000000 0.089960 26493 5
117.431801 187.714630 -20.000000 0.089960 26493 5
110.619972 191.807785 -20.000000 0.089960 26493 5
103.665588 195.653915 -20.000000 0.089960 26493 5
96.577637 199.247986 -20.000000 0.089960 26493 5
89.365379 202.585358 -20.000000 0.089960 26493 5
82.038048 205.661774 -20.000000 0.089960 26493 5
74.604973 208.473282 -20.000000 0.089960 26493 5
67.075836 211.016205 -20.000000 0.089960 26493 5
59.460274 213.287323 -20.000000 0.089960 26493 5
51.768089 215.283661 -20.000000 0.089960 26493 5
44.009251 217.002731 -20.000000 0.089960 26493 5
36.193668 218.442261 -20.000000 0.089960 26493 5
28.331379 219.600372 -20.000000 0.089960 26493 5
20.432724 220.475632 -20.000000 0.089960 26493 5
12.507712 221.066895 -20.000000 0.089960 26493 5
4.566611 221.373352 -20.000000 0.089960 26493 5
-3.380112 221.394608 -20.000000 0.089960 26493 5
-11.322784 221.130737 -20.000000 0.089960 26493 5
-19.250858 220.582016 -20.000000 0.089960 26493 5
-27.154078 219.749054 -20.000000 0.089960 26493 5
-35.022400 218.633102 -20.000000 0.089960 26493 5
-42.845543 217.235519 -20.000000 0.089960 26493 5
-50.613285 215.558121 -20.000000 0.089960 26493 5
-58.316101 213.602982 -20.000000 0.089960 26493 5
-65.943733 211.372726 -20.000000 0.089960 26493 5
-73.486404 208.870193 -20.000000 0.089960 26493 5
-80.934380 206.098602 -20.000000 0.089960 26493 5
-88.278122 203.061493 -20.000000 0.089960 26493 5
-95.508171 199.762817 -20.000000 0.089960 26493 5
-102.615250 196.206787 -20.000000 0.089960 26493 5
-109.590179 192.398010 -20.000000 0.089960 26493 5
-116.423859 188.341431 -20.000000 0.089960 26493 5
-123.107590 184.042175 -20.000000 0.089960 26493 5
-129.632599 179.505951 -20.000000 0.089960 26493 5
-135.990723 174.738464 -20.000000 0.089960 26493 5
-142.173706 169.745819 -20.000000 0.089960 26493 5
-148.173599 164.534454 -20.000000 0.089960 26493 5
-153.982391 159.111374 -20.000000 0.089960 26493 5
-159.593140 153.483063 -20.000000 0.089960 26493 5
-164.998032 147.657227 -20.000000 0.089960 26493 5
-170.190536 141.641052 -20.000000 0.089960 26493 5
-175.163635 135.442642 -20.000000 0.089960 26493 5
-179.911148 129.069702 -20.000000 0.089960 26493 5
-184.426926 122.530464 -20.000000 0.089960 26493 5
-188.705200 115.833328 -20.000000 0.089960 26493 5
-192.740479 108.986839 -20.000000 0.089960 26493 5
-196.527344 102.000099 -20.000000 0.089960 26493 5
-200.060974 94.882111 -20.000000 0.089960 26493 5
-203.336990 87.641747 -20.000000 0.089960 26493 5
-206.351044 80.288574 -20.000000 0.089960 26493 5
-209.099274 72.831932 -20.000000 0.089960 26493 5
-211.578247 65.281410 -20.000000 0.089960 26493 5
-213.784592 57.646809 -20.000000 0.089960 26493 5
-215.715561 49.938023 -20.000000 0.089960 26493 5
-217.368652 42.164841 -20.000000 0.089960 26493 5
-218.741760 34.337315 -20.000000 0.089960 26493 5
-219.833099 26.465544 -20.000000 0.089960 26493 5
-220.641235 18.559723 -20.000000 0.089960 26493 5
-221.165146 10.630000 -20.000000 0.089960 26493 5
-221.404144 2.686444 -20.000000 0.089960 26493 5
-221.357956 -5.260406 -20.000000 0.089960 26493 5
-221.026581 -13.200491 -20.000000 0.089960 26493 5
-220.410522 -21.123634 -20.000000 0.089960 26493 5
-219.510559 -29.019405 -20.000000 0.089960 26493 5
-218.327759 -36.878056 -20.000000 0.089960 26493 5
-216.863800 -44.688843 -20.000000 0.089960 26493 5
-215.120453 -52.442337 -20.000000 0.089960 26493 5
-6.926694 130.369202 -20.000000 0.151428 26493 5
-11.600576 130.036667 -20.000000 0.151428 26493 5
-16.259518 129.536591 -20.000000 0.151428 26493 5
-20.897427 128.869705 -20.000000 0.151428 26493 5
-25.508537 128.036758 -20.000000 0.151428 26493 5
-30.086739 127.038925 -20.000000 0.151428 26493 5
-34.626213 125.877403 -20.000000 0.151428 26493 5
-39.121044 124.553795 -20.000000 0.151428 26493 5
-43.565475 123.069695 -20.000000 0.151428 26493 5
-47.953758 121.427094 -20.000000 0.151428 26493 5
-52.280270 119.628098 -20.000000 0.151428 26493 5
-56.539532 117.674889 -20.000000 0.151428 26493 5
-60.725880 115.570183 -20.000000 0.151428 26493 5
-64.834053 113.316566 -20.000000 0.151428 26493 5
-68.858734 110.916954 -20.000000 0.151428 26493 5
-72.794678 108.374496 -20.000000 0.151428 26493 5
-76.636780 105.692513 -20.000000 0.151428 26493 5
-80.380196 102.874336 -20.000000 0.151428 26493 5
-84.020088 99.923599 -20.000000 0.151428 26493 5
-87.551819 96.844093 -20.000000 0.151428 26493 5
-90.970665 93.639961 -20.000000 0.151428 26493 5
-94.272392 90.315109 -20.000000 0.151428 26493 5
-97.452599 86.873993 -20.000000 0.151428 26493 5
-100.507355 83.320908 -20.000000 0.151428 26493 5
-103.432617 79.660492 -20.000000 0.151428 26493 5
-106.224655 75.897476 -20.000000 0.151428 26493 5
-108.879807 72.036728 -20.000000 0.151428 26493 5
-111.394722 68.083160 -20.000000 0.151428 26493 5
-113.766144 64.041931 -20.000000 0.151428 26493 5
-115.991043 59.918110 -20.000000 0.151428 26493 5
-118.066544 55.717072 -20.000000 0.151428 26493 5
-119.989914 51.444359 -20.000000 0.151428 26493 5
-121.758713 47.105408 -20.000000 0.151428 26493 5
-123.370674 42.705719 -20.000000 0.151428 26493 5
-124.823708 38.251095 -20.000000 0.151428 26493 5
-126.115936 33.747166 -20.000000 0.151428 26493 5
-127.245758 29.199673 -20.000000 0.151428 26493 5
-128.211655 24.614597 -20.000000 0.151428 26493 5
-129.012360 19.997883 -20.000000 0.151428 26493 5
-129.646881 15.355392 -20.000000 0.151428 26493 5
-130.114410 10.693057 -20.000000 0.151428 26493 5
-130.414368 6.016949 -20.000000 0.151428 26493 5
-130.546280 1.333151 -20.000000 0.151428 26493 5
-130.510040 -3.352453 -20.000000 0.151428 26493 5
-130.305664 -8.033662 -20.000000 0.151428 26493 5
-129.933456 -12.704618 -20.000000 0.151428 26493 5
-129.393860 -17.359100 -20.000000 0.151428 26493 5
-128.687561 -21.991226 -20.000000 0.151428 26493 5
-127.815521 -26.595030 -20.000000 0.151428 26493 5
-126.778847 -31.164583 -20.000000 0.151428 26493 5
-125.578827 -35.694035 -20.000000 0.151428 26493 5
-124.217049 -40.177494 -20.000000 0.151428 26493 5
-122.695297 -44.609093 -20.000000 0.151428 26493 5
-121.015480 -48.983276 -20.000000 0.151428 26493 5
-119.179756 -53.294369 -20.000000 0.151428 26493 5
-117.190506 -57.536797 -20.000000 0.151428 26493 5
-115.050270 -61.705261 -20.000000 0.151428 26493 5
-112.761841 -65.794182 -20.000000 0.151428 26493 5
-110.328186 -69.798248 -20.000000 0.151428 26493 5
-107.752426 -73.712402 -20.000000 0.151428 26493 5
-105.037857 -77.531624 -20.000000 0.151428 26493 5
-102.187981 -81.250961 -20.000000 0.151428 26493 5
-99.206406 -84.865753 -20.000000 0.151428 26493 5
-96.097099 -88.371124 -20.000000 0.151428 26493 5
-92.863998 -91.762604 -20.000000 0.151428 26493 5
-89.511307 -95.035957 -20.000000 0.151428 26493 5
-86.043221 -98.186920 -20.000000 0.151428 26493 5
-82.464279 -101.211395 -20.000000 0.151428 26493 5
-78.779190 -104.105446 -20.000000 0.151428 26493 5
-74.992622 -106.865379 -20.000000 0.151428 26493 5
-71.109451 -109.487656 -20.000000 0.151428 26493 5
-67.134621 -111.968964 -20.000000 0.151428 26493 5
-63.073387 -114.305954 -20.000000 0.151428 26493 5
-58.930836 -116.495758 -20.000000 0.151428 26493 5
-54.712406 -118.535461 -20.000000 0.151428 26493 5
-50.423531 -120.422478 -20.000000 0.151428 26493 5
-46.069687 -122.154358 -20.000000 0.151428 26493 5
-41.656479 -123.728897 -20.000000 0.151428 26493 5
-37.189617 -125.144073 -20.000000 0.151428 26493 5
-32.674862 -126.398010 -20.000000 0.151428 26493 5
-28.117958 -127.489151 -20.000000 0.151428 26493 5
-23.524860 -128.416061 -20.000000 0.151428 26493 5
-18.901430 -129.177551 -20.000000 0.151428 26493 5
-14.253688 -129.772644 -20.000000 0.151428 26493 5
-9.587632 -130.200546 -20.000000 0.151428 26493 5
-4.909174 -130.460739 -20.000000 0.151428 26493 5
-0.224366 -130.552902 -20.000000 0.151428 26493 5
4.460629 -130.476852 -20.000000 0.151428 26493 5
9.139950 -130.232742 -20.000000 0.151428 26493 5
13.807500 -129.820877 -20.000000 0.151428 26493 5
18.457289 -129.241776 -20.000000 0.151428 26493 5
23.083294 -128.496155 -20.000000 0.151428 26493 5
27.679554 -127.585068 -20.000000 0.151428 26493 5
32.240143 -126.509621 -20.000000 0.151428 26493 5
36.759228 -125.271179 -20.000000 0.151428 26493 5
41.230938 -123.871376 -20.000000 0.151428 26493 5
45.649445 -122.312050 -20.000000 0.151428 26493 5
50.009224 -120.595131 -20.000000 0.151428 26493 5
54.304581 -118.722870 -20.000000 0.151428 26493 5
58.530022 -116.697655 -20.000000 0.151428 26493 5
62.680019 -114.522156 -20.000000 0.151428 26493 5
66.749344 -112.199089 -20.000000 0.151428 26493 5
70.732658 -109.731461 -20.000000 0.151428 26493 5
74.624840 -107.122536 -20.000000 0.151428 26493 5
78.420845 -104.375648 -20.000000 0.151428 26493 5
82.115875 -101.494293 -20.000000 0.151428 26493 5
85.705185 -98.482124 -20.000000 0.151428 26493 5
89.184082 -95.343094 -20.000000 0.151428 26493 5
92.548035 -92.081322 -20.000000 0.151428 26493 5
95.792709 -88.700974 -20.000000 0.151428 26493 5
98.914108 -85.206268 -20.000000 0.151428 26493 5
101.908081 -81.601768 -20.000000 0.151428 26493 5
104.770676 -77.892303 -20.000000 0.151428 26493 5
107.498360 -74.082443 -20.000000 0.151428 26493 5
110.087578 -70.177132 -20.000000 0.151428 26493 5
112.535011 -66.181396 -20.000000 0.151428 26493 5
114.837479 -62.100388 -20.000000 0.151428 26493 5
116.992012 -57.939384 -20.000000 0.151428 26493 5
118.995842 -53.703751 -20.000000 0.151428 26493 5
120.846367 -49.398987 -20.000000 0.151428 26493 5
122.541229 -45.030582 -20.000000 0.151428 26493 5
124.078224 -40.604137 -20.000000 0.151428 26493 5
125.455391 -36.125443 -20.000000 0.151428 26493 5
126.670959 -31.600182 -20.000000 0.151428 26493 5
127.723320 -27.034336 -20.000000 0.151428 26493 5
128.611206 -22.433510 -20.000000 0.151428 26493 5
129.333374 -17.803814 -20.000000 0.151428 26493 5
129.888992 -13.151162 -20.000000 0.151428 26493 5
130.277252 -8.481583 -20.000000 0.151428 26493 5
130.497711 -3.801081 -20.000000 0.151428 26493 5
130.550079 0.884367 -20.000000 0.151428 26493 5
130.434265 5.568620 -20.000000 0.151428 26493 5
130.150436 10.245592 -20.000000 0.151428 26493 5
129.698944 14.909498 -20.000000 0.151428 26493 5
129.080353 19.554152 -20.000000 0.151428 26493 5
128.295532 24.173679 -20.000000 0.151428 26493 5
127.345398 28.762035 -20.000000 0.151428 26493 5
126.231262 33.313354 -20.000000 0.151428 26493 5
124.954483 37.821712 -20.000000 0.151428 26493 5
123.516769 42.281380 -20.000000 0.151428 26493 5
121.919968 46.686562 -20.000000 0.151428 26493 5
120.166077 51.031605 -20.000000 0.151428 26493 5
118.257401 55.310921 -20.000000 0.151428 26493 5
116.196373 59.518990 -20.000000 0.151428 26493 5
113.985649 63.650429 -20.000000 0.151428 26493 5
111.628098 67.699883 -20.000000 0.151428 26493 5
109.126778 71.662094 -20.000000 0.151428 26493 5
106.484894 75.531967 -20.000000 0.151428 26493 5
103.705856 79.304527 -20.000000 0.151428 26493 5
100.793159 82.974953 -20.000000 0.151428 26493 5
97.750702 86.538452 -20.000000 0.151428 26493 5
94.582321 89.990509 -20.000000 0.151428 26493 5
91.292007 93.326691 -20.000000 0.151428 26493 5
87.884232 96.542542 -20.000000 0.151428 26493 5
84.363106 99.634178 -20.000000 0.151428 26493 5
80.733345 102.597404 -20.000000 0.151428 26493 5
76.999763 105.428368 -20.000000 0.151428 26493 5
73.166855 108.123581 -20.000000 0.151428 26493 5
69.239677 110.679573 -20.000000 0.151428 26493 5
65.223320 113.092972 -20.000000 0.151428 26493 5
61.122875 115.360718 -20.000000 0.151428 26493 5
56.943741 117.479858 -20.000000 0.151428 26493 5
52.691265 119.447609 -20.000000 0.151428 26493 5
48.370918 121.261520 -20.000000 0.151428 26493 5
43.988274 122.919220 -20.000000 0.151428 26493 5
39.548996 124.418579 -20.000000 0.151428 26493 5
35.058743 125.757652 -20.000000 0.151428 26493 5
30.523308 126.934738 -20.000000 0.151428 26493 5
25.948549 127.948334 -20.000000 0.151428 26493 5
21.340370 128.797104 -20.000000 0.151428 26493 5
16.704643 129.479950 -20.000000 0.151428 26493 5
12.047463 129.996017 -20.000000 0.151428 26493 5
7.374749 130.344604 -20.000000 0.151428 26493 5
2.692532 130.525299 -20.000000 0.151428 26493 5
-1.992969 130.537872 -20.000000 0.151428 26493 5
-6.676082 130.382263 -20.000000 0.151428 26493 5
-11.350617 130.058701 -20.000000 0.151428 26493 5
-16.010475 129.567612 -20.000000 0.151428 26493 5
-20.649771 128.909607 -20.000000 0.151428 26493 5
-25.262440 128.085571 -20.000000 0.151428 26493 5
-29.842426 127.096527 -20.000000 0.151428 26493 5
-34.384113 125.943779 -20.000000 0.151428 26493 5
-38.881496 124.628761 -20.000000 0.151428 26493 5
-43.328770 123.153229 -20.000000 0.151428 26493 5
-47.720207 121.519066 -20.000000 0.151428 26493 5
-52.050190 119.728355 -20.000000 0.151428 26493 5
-56.313160 117.783409 -20.000000 0.151428 26493 5
-60.503593 115.686737 -20.000000 0.151428 26493 5
-64.616135 113.440994 -20.000000 0.151428 26493 5
-68.645424 111.049126 -20.000000 0.151428 26493 5
-72.586212 108.514244 -20.000000 0.151428 26493 5
-76.433464 105.839653 -20.000000 0.151428 26493 5
-80.182335 103.028625 -20.000000 0.151428 26493 5
-83.827904 100.084877 -20.000000 0.151428 26493 5
-87.365517 97.012222 -20.000000 0.151428 26493 5
-90.790474 93.814667 -20.000000 0.151428 26493 5
-94.098709 90.496063 -20.000000 0.151428 26493 5
-97.285522 87.061058 -20.000000 0.151428 26493 5
-100.347099 83.513840 -20.000000 0.151428 26493 5
-103.279297 79.859169 -20.000000 0.151428 26493 5
-106.078514 76.101585 -20.000000 0.151428 26493 5
-108.741112 72.245918 -20.000000 0.151428 26493 5
-111.263641 68.297195 -20.000000 0.151428 26493 5
-113.642883 64.260384 -20.000000 0.151428 26493 5
-115.875710 60.140858 -20.000000 0.151428 26493 5
-117.959213 55.943977 -20.000000 0.151428 26493 5
-119.890778 51.674992 -20.000000 0.151428 26493 5
-121.667915 47.339417 -20.000000 0.151428 26493 5
-123.288330 42.942883 -20.000000 0.151428 26493 5
-124.749947 38.490959 -20.000000 0.151428 26493 5
-126.050850 33.989471 -20.000000 0.151428 26493 5
-127.189392 29.444262 -20.000000 0.151428 26493 5
-128.164078 24.861061 -20.000000 0.151428 26493 5
-128.973679 20.245831 -20.000000 0.151428 26493 5
-129.617126 15.604501 -20.000000 0.151428 26493 5
-130.093613 10.943121 -20.000000 0.151428 26493 5
-130.402557 6.267608 -20.000000 0.151428 26493 5
-130.543472 1.583952 -20.000000 0.151428 26493 5
-130.516235 -3.101651 -20.000000 0.151428 26493 5
-130.320862 -7.783232 -20.000000 0.151428 26493 5
-129.957626 -12.454860 -20.000000 0.151428 26493 5
-129.426971 -17.110327 -20.000000 0.151428 26493 5
-128.729584 -21.743925 -20.000000 0.151428 26493 5
-127.866425 -26.349295 -20.000000 0.151428 26493 5
-126.838516 -30.920870 -20.000000 0.151428 26493 5
-4.883957 91.922256 -20.000000 0.212315 26493 5
-8.179473 91.687782 -20.000000 0.212315 26493 5
-11.464446 91.335220 -20.000000 0.212315 26493 5
-14.734597 90.864998 -20.000000 0.212315 26493 5
-17.985876 90.277702 -20.000000 0.212315 26493 5
-21.213921 89.574135 -20.000000 0.212315 26493 5
-24.414669 88.755157 -20.000000 0.212315 26493 5
-27.583923 87.821884 -20.000000 0.212315 26493 5
-30.717667 86.775452 -20.000000 0.212315 26493 5
-33.811813 85.617271 -20.000000 0.212315 26493 5
-36.862389 84.348801 -20.000000 0.212315 26493 5
-39.865551 82.971672 -20.000000 0.212315 26493 5
-42.817329 81.487610 -20.000000 0.212315 26493 5
-45.713974 79.898605 -20.000000 0.212315 26493 5
-48.551750 78.206673 -20.000000 0.212315 26493 5
-51.326954 76.414001 -20.000000 0.212315 26493 5
-54.035973 74.522964 -20.000000 0.212315 26493 5
-56.675423 72.535866 -20.000000 0.212315 26493 5
-59.241867 70.455345 -20.000000 0.212315 26493 5
-61.732094 68.284004 -20.000000 0.212315 26493 5
-64.142647 66.024811 -20.000000 0.212315 26493 5
-66.470703 63.680450 -20.000000 0.212315 26493 5
-68.713043 61.254173 -20.000000 0.212315 26493 5
-70.866920 58.748917 -20.000000 0.212315 26493 5
-72.929512 56.167992 -20.000000 0.212315 26493 5
-74.898148 53.514706 -20.000000 0.212315 26493 5
-76.770256 50.792553 -20.000000 0.212315 26493 5
-78.543526 48.004898 -20.000000 0.212315 26493 5
-80.215591 45.155457 -20.000000 0.212315 26493 5
-81.784363 42.247810 -20.000000 0.212315 26493 5
-83.247780 39.285679 -20.000000 0.212315 26493 5
-84.603920 36.273026 -20.000000 0.212315 26493 5
-85.851089 33.213654 -20.000000 0.212315 26493 5
-86.987679 30.111471 -20.000000 0.212315 26493 5
-88.012192 26.970545 -20.000000 0.212315 26493 5
-88.923340 23.794870 -20.000000 0.212315 26493 5
-89.719963 20.588470 -20.000000 0.212315 26493 5
-90.400993 17.355576 -20.000000 0.212315 26493 5
-90.965576 14.100358 -20.000000 0.212315 26493 5
-91.412979 10.826991 -20.000000 0.212315 26493 5
-91.742645 7.539588 -20.000000 0.212315 26493 5
-91.954163 4.242544 -20.000000 0.212315 26493 5
-92.047127 0.940001 -20.000000 0.212315 26493 5
-92.021576 -2.363751 -20.000000 0.212315 26493 5
-91.877464 -5.664433 -20.000000 0.212315 26493 5
-91.615005 -8.957868 -20.000000 0.212315 26493 5
-91.234550 -12.239729 -20.000000 0.212315 26493 5
-90.736572 -15.505813 -20.000000 0.212315 26493 5
-90.121704 -18.751940 -20.000000 0.212315 26493 5
-89.390747 -21.973871 -20.000000 0.212315 26493 5
-88.544609 -25.167555 -20.000000 0.212315 26493 5
-87.584419 -28.328800 -20.000000 0.212315 26493 5
-86.511452 -31.453451 -20.000000 0.212315 26493 5
-85.327026 -34.537697 -20.000000 0.212315 26493 5
-84.032669 -37.577404 -20.000000 0.212315 26493 5
-82.630081 -40.568726 -20.000000 0.212315 26493 5
-81.121010 -43.507843 -20.000000 0.212315 26493 5
-79.507469 -46.390930 -20.000000 0.212315 26493 5
-77.791504 -49.214161 -20.000000 0.212315 26493 5
-75.975372 -51.973972 -20.000000 0.212315 26493 5
-74.061356 -54.666916 -20.000000 0.212315 26493 5
-72.051926 -57.289394 -20.000000 0.212315 26493 5
-69.949615 -59.838139 -20.000000 0.212315 26493 5
-67.757286 -62.309753 -20.000000 0.212315 26493 5
-65.477676 -64.701050 -20.000000 0.212315 26493 5
-63.113689 -67.009087 -20.000000 0.212315 26493 5
-60.668373 -69.230804 -20.000000 0.212315 26493 5
-58.144901 -71.363342 -20.000000 0.212315 26493 5
-55.546574 -73.403915 -20.000000 0.212315 26493 5
-52.876709 -75.349907 -20.000000 0.212315 26493 5
-50.138702 -77.198875 -20.000000 0.212315 26493 5
-47.336071 -78.948425 -20.000000 0.212315 26493 5
-44.472542 -80.596207 -20.000000 0.212315 26493 5
-41.551636 -82.140228 -20.000000 0.212315 26493 5
-38.577263 -83.578423 -20.000000 0.212315 26493 5
-35.553249 -84.908920 -20.000000 0.212315 26493 5
-32.483368 -86.130058 -20.000000 0.212315 26493 5
-29.371662 -87.240265 -20.000000 0.212315 26493 5
-26.222095 -88.238091 -20.000000 0.212315 26493 5
-23.038780 -89.122215 -20.000000 0.212315 26493 5
-19.825768 -89.891586 -20.000000 0.212315 26493 5
-16.587191 -90.545135 -20.000000 0.212315 26493 5
-13.327237 -91.082047 -20.000000 0.212315 26493 5
-10.050161 -91.501656 -20.000000 0.212315 26493 5
-6.760136 -91.803360 -20.000000 0.212315 26493 5
-3.461414 -91.986824 -20.000000 0.212315 26493 5
-0.158199 -92.051781 -20.000000 0.212315 26493 5
3.145154 -91.998184 -20.000000 0.212315 26493 5
6.444512 -91.826073 -20.000000 0.212315 26493 5
9.735558 -91.535652 -20.000000 0.212315 26493 5
13.014093 -91.127327 -20.000000 0.212315 26493 5
16.275845 -90.601639 -20.000000 0.212315 26493 5
19.516655 -89.959206 -20.000000 0.212315 26493 5
22.732271 -89.200905 -20.000000 0.212315 26493 5
25.918633 -88.327713 -20.000000 0.212315 26493 5
29.071608 -87.340698 -20.000000 0.212315 26493 5
32.187054 -86.241234 -20.000000 0.212315 26493 5
35.261101 -85.030663 -20.000000 0.212315 26493 5
38.289722 -83.710548 -20.000000 0.212315 26493 5
41.269043 -82.282585 -20.000000 0.212315 26493 5
44.195198 -80.748642 -20.000000 0.212315 26493 5
47.064430 -79.110657 -20.000000 0.212315 26493 5
49.873043 -77.370781 -20.000000 0.212315 26493 5
52.617382 -75.531258 -20.000000 0.212315 26493 5
55.293922 -73.594437 -20.000000 0.212315 26493 5
57.899261 -71.562805 -20.000000 0.212315 26493 5
60.430042 -69.438957 -20.000000 0.212315 26493 5
62.882973 -67.225670 -20.000000 0.212315 26493 5
65.254883 -64.925789 -20.000000 0.212315 26493 5
67.542671 -62.542332 -20.000000 0.212315 26493 5
69.743530 -60.078259 -20.000000 0.212315 26493 5
71.854553 -57.536766 -20.000000 0.212315 26493 5
73.872963 -54.921234 -20.000000 0.212315 26493 5
75.796242 -52.234943 -20.000000 0.212315 26493 5
77.621880 -49.481331 -20.000000 0.212315 26493 5
79.347549 -46.663952 -20.000000 0.212315 26493 5
80.970993 -43.786491 -20.000000 0.212315 26493 5
82.490128 -40.852600 -20.000000 0.212315 26493 5
83.903030 -37.866062 -20.000000 0.212315 26493 5
85.207809 -34.830811 -20.000000 0.212315 26493 5
86.402840 -31.750698 -20.000000 0.212315 26493 5
87.486557 -28.629677 -20.000000 0.212315 26493 5
88.457588 -25.471762 -20.000000 0.212315 26493 5
89.314690 -22.281019 -20.000000 0.212315 26493 5
90.056686 -19.061712 -20.000000 0.212315 26493 5
90.682724 -15.817698 -20.000000 0.212315 26493 5
91.191940 -12.553312 -20.000000 0.212315 26493 5
91.583679 -9.272760 -20.000000 0.212315 26493 5
91.857452 -5.980288 -20.000000 0.212315 26493 5
92.012901 -2.680081 -20.000000 0.212315 26493 5
92.049812 0.623545 -20.000000 0.212315 26493 5
91.968140 3.926378 -20.000000 0.212315 26493 5
91.768005 7.224049 -20.000000 0.212315 26493 5
91.449669 10.512531 -20.000000 0.212315 26493 5
91.013512 13.787471 -20.000000 0.212315 26493 5
90.460129 17.044649 -20.000000 0.212315 26493 5
89.790215 20.279873 -20.000000 0.212315 26493 5
89.004601 23.488935 -20.000000 0.212315 26493 5
88.104385 26.667761 -20.000000 0.212315 26493 5
87.090660 29.812233 -20.000000 0.212315 26493 5
85.964745 32.918285 -20.000000 0.212315 26493 5
84.728111 35.981949 -20.000000 0.212315 26493 5
83.382324 38.999275 -20.000000 0.212315 26493 5
81.929100 41.966343 -20.000000 0.212315 26493 5
80.370361 44.879406 -20.000000 0.212315 26493 5
78.708069 47.734634 -20.000000 0.212315 26493 5
76.944412 50.528355 -20.000000 0.212315 26493 5
75.081604 53.256935 -20.000000 0.212315 26493 5
73.122124 55.916958 -20.000000 0.212315 26493 5
71.068451 58.504959 -20.000000 0.212315 26493 5
68.923225 61.017544 -20.000000 0.212315 26493 5
66.689240 63.451572 -20.000000 0.212315 26493 5
64.369278 65.803909 -20.000000 0.212315 26493 5
61.966476 68.071381 -20.000000 0.212315 26493 5
59.483757 70.251259 -20.000000 0.212315 26493 5
56.924438 72.340622 -20.000000 0.212315 26493 5
54.291927 74.336700 -20.000000 0.212315 26493 5
51.589371 76.237083 -20.000000 0.212315 26493 5
48.820358 78.039291 -20.000000 0.212315 26493 5
45.988449 79.740936 -20.000000 0.212315 26493 5
43.097271 81.339912 -20.000000 0.212315 26493 5
40.150589 82.834106 -20.000000 0.212315 26493 5
37.152195 84.221542 -20.000000 0.212315 26493 5
34.105942 85.500519 -20.000000 0.212315 26493 5
