ply
format ascii 1.0
element vertex 1137
property float32 x
property float32 y
property float32 z
property float32 I
end_header
171.071655 -27.674492 -12.986708 0.000000
170.588867 -26.496475 -12.937147 0.000000
168.992249 -21.910469 -12.770205 0.000000
168.694305 -20.793840 -12.737539 0.000000
168.397873 -19.682922 -12.705580 0.000000
168.054565 -17.503000 -12.662054 0.000000
167.727127 -15.338860 -12.621836 0.000000
167.627335 -14.267204 -12.607321 0.000000
167.876694 -3.696094 -12.583635 0.000000
168.357788 -0.529431 -12.616709 0.000000
168.629990 0.530285 -12.637106 0.000000
169.486252 3.731530 -12.704290 0.000000
170.799896 6.986472 -12.810354 0.000000
172.014282 9.204751 -12.909124 0.000000
265.772980 24.305172 -20.000000 0.000000
265.266724 29.315250 -20.000000 0.000000
264.445740 35.978897 -20.000000 0.000000
264.214233 37.641426 -20.000000 0.000000
263.456604 42.619652 -20.000000 0.000000
263.183716 44.275879 -20.000000 0.000000
261.986298 50.882256 -20.000000 0.000000
261.661499 52.529099 -20.000000 0.000000
261.325531 54.173714 -20.000000 0.000000
251.915375 88.117256 -20.000000 0.000000
249.020294 95.994415 -20.000000 0.000000
247.792709 99.118950 -20.000000 0.000000
247.164856 100.675629 -20.000000 0.000000
246.526367 102.227966 -20.000000 0.000000
245.220947 105.320831 -20.000000 0.000000
241.788574 112.979218 -20.000000 0.000000
237.353577 122.020805 -20.000000 0.000000
236.581436 123.511200 -20.000000 0.000000
235.800262 124.996895 -20.000000 0.000000
174.115372 112.955170 -15.553316 0.000000
160.408081 122.186172 -15.111076 0.000000
159.601028 123.165291 -15.107750 0.000000
151.493179 138.052994 -15.359632 0.000000
150.726120 140.864960 -15.460331 0.000000
150.119812 151.304688 -15.972715 0.000000
150.455597 153.562988 -16.110851 0.000000
178.204147 198.668228 -20.000000 0.000000
176.951447 199.785431 -20.000000 0.000000
169.287827 206.319305 -20.000000 0.000000
166.679199 208.432358 -20.000000 0.000000
165.365051 209.476562 -20.000000 0.000000
164.044006 210.512207 -20.000000 0.000000
160.043030 213.569763 -20.000000 0.000000
157.344223 215.566238 -20.000000 0.000000
151.871658 219.455704 -20.000000 0.000000
150.488647 220.406860 -20.000000 0.000000
144.896637 224.122696 -20.000000 0.000000
142.065811 225.927246 -20.000000 0.000000
140.641998 226.816284 -20.000000 0.000000
129.056381 233.602814 -20.000000 0.000000
127.584564 234.409882 -20.000000 0.000000
124.626114 235.996521 -20.000000 0.000000
120.151230 238.305908 -20.000000 0.000000
117.144188 239.798340 -20.000000 0.000000
115.633659 240.530411 -20.000000 0.000000
112.598732 241.965546 -20.000000 0.000000
106.476616 244.721771 -20.000000 0.000000
103.389999 246.041748 -20.000000 0.000000
101.840477 246.687134 -20.000000 0.000000
87.721085 252.053635 -20.000000 0.000000
86.133888 252.599976 -20.000000 0.000000
81.352966 254.180496 -20.000000 0.000000
78.149063 255.183258 -20.000000 0.000000
74.933182 256.146545 -20.000000 0.000000
73.320709 256.612732 -20.000000 0.000000
55.405991 261.067474 -20.000000 0.000000
47.169907 262.680481 -20.000000 0.000000
39.782181 258.806976 -19.622658 0.000000
30.962208 254.481842 -19.211403 0.000000
29.274542 253.921616 -19.154827 0.000000
25.960253 253.118668 -19.068111 0.000000
22.714296 252.757736 -19.017868 0.000000
11.569607 253.551147 -19.020790 0.000000
0.406399 258.472015 -19.369781 0.000000
-2.873344 261.059174 -19.564823 0.000000
-7.963026 266.466919 -19.977840 0.000000
-13.003523 266.564667 -20.000000 0.000000
-16.355555 266.380432 -20.000000 0.000000
-18.030602 266.272278 -20.000000 0.000000
-26.393785 265.573273 -20.000000 0.000000
-28.063694 265.402435 -20.000000 0.000000
-31.399780 265.028015 -20.000000 0.000000
-44.689640 263.113403 -20.000000 0.000000
-57.866322 260.533173 -20.000000 0.000000
-85.339272 252.869995 -20.000000 0.000000
-88.513115 251.776642 -20.000000 0.000000
-91.673218 250.643265 -20.000000 0.000000
-94.818565 249.470337 -20.000000 0.000000
-97.948975 248.257538 -20.000000 0.000000
-99.508522 247.636932 -20.000000 0.000000
-111.837479 242.318863 -20.000000 0.000000
-113.359291 241.610596 -20.000000 0.000000
-123.883347 236.387299 -20.000000 0.000000
-125.367371 235.603119 -20.000000 0.000000
-126.846909 234.810364 -20.000000 0.000000
-137.058594 228.999969 -20.000000 0.000000
-144.191025 224.577332 -20.000000 0.000000
-149.794662 220.879089 -20.000000 0.000000
-163.381378 211.027390 -20.000000 0.000000
-164.705383 209.995636 -20.000000 0.000000
-168.637787 206.850403 -20.000000 0.000000
-171.226471 204.712723 -20.000000 0.000000
-173.787933 202.542755 -20.000000 0.000000
-175.058716 201.445923 -20.000000 0.000000
-176.322250 200.340897 -20.000000 0.000000
-182.534149 194.698013 -20.000000 0.000000
-194.410538 182.840286 -20.000000 0.000000
-201.170502 175.375214 -20.000000 0.000000
-203.360580 172.830795 -20.000000 0.000000
-205.518387 170.259247 -20.000000 0.000000
-207.643829 167.660645 -20.000000 0.000000
-208.693909 166.350983 -20.000000 0.000000
-209.736237 165.035553 -20.000000 0.000000
-211.795624 162.384186 -20.000000 0.000000
-212.812729 161.049011 -20.000000 0.000000
-218.737167 152.905487 -20.000000 0.000000
-221.582870 148.750900 -20.000000 0.000000
-222.514359 147.354675 -20.000000 0.000000
-225.254547 143.129974 -20.000000 0.000000
-226.150299 141.710464 -20.000000 0.000000
-228.784119 137.418579 -20.000000 0.000000
-236.192245 124.254860 -20.000000 0.000000
-236.969086 122.766846 -20.000000 0.000000
-238.494080 119.776367 -20.000000 0.000000
-242.843231 110.693092 -20.000000 0.000000
-243.535034 109.163780 -20.000000 0.000000
-246.204041 103.002975 -20.000000 0.000000
-246.846954 101.452469 -20.000000 0.000000
-247.479706 99.897926 -20.000000 0.000000
-248.717102 96.777153 -20.000000 0.000000
-249.914383 93.640877 -20.000000 0.000000
-251.637009 88.909210 -20.000000 0.000000
-252.191254 87.324600 -20.000000 0.000000
-254.308151 80.953133 -20.000000 0.000000
-255.305878 77.747879 -20.000000 0.000000
-256.264069 74.530350 -20.000000 0.000000
-256.727722 72.917252 -20.000000 0.000000
-258.480713 66.436012 -20.000000 0.000000
-260.441833 58.275925 -20.000000 0.000000
-260.803223 56.636875 -20.000000 0.000000
-261.824951 51.706051 -20.000000 0.000000
-262.754333 46.756798 -20.000000 0.000000
-263.043213 45.103420 -20.000000 0.000000
-265.358002 28.481077 -20.000000 0.000000
-266.797638 6.713539 -20.000000 0.000000
-266.834137 5.035445 -20.000000 0.000000
-266.882080 0.000115 -20.000000 0.000000
-207.173462 -7.821793 -20.000000 0.000000
-207.058670 -10.427202 -20.000000 0.000000
-206.911133 -13.030734 -20.000000 0.000000
-206.825089 -14.331919 -20.000000 0.000000
-206.730865 -15.632463 -20.000000 0.000000
-206.399170 -19.530132 -20.000000 0.000000
-206.272186 -20.827917 -20.000000 0.000000
-205.842499 -24.715990 -20.000000 0.000000
-205.683014 -26.010126 -20.000000 0.000000
-204.963623 -31.175928 -20.000000 0.000000
-204.763489 -32.464329 -20.000000 0.000000
-204.555237 -33.751671 -20.000000 0.000000
-203.136215 -41.444992 -20.000000 0.000000
-202.598831 -43.996994 -20.000000 0.000000
-201.115326 -50.345367 -20.000000 0.000000
-200.794708 -51.609207 -20.000000 0.000000
-200.466095 -52.871174 -20.000000 0.000000
-200.129608 -54.130905 -20.000000 0.000000
-199.432922 -56.643955 -20.000000 0.000000
-199.072723 -57.897144 -20.000000 0.000000
-198.328720 -60.396606 -20.000000 0.000000
-193.210083 -75.179108 -20.000000 0.000000
-189.184464 -84.801270 -20.000000 0.000000
-186.991425 -89.533371 -20.000000 0.000000
-184.680023 -94.208870 -20.000000 0.000000
-182.869659 -97.676567 -20.000000 0.000000
-180.994217 -101.109444 -20.000000 0.000000
-177.725586 -106.750366 -20.000000 0.000000
-176.368759 -108.977448 -20.000000 0.000000
-173.571533 -113.379608 -20.000000 0.000000
-170.664581 -117.709869 -20.000000 0.000000
-169.920837 -118.781044 -20.000000 0.000000
-169.170456 -119.847298 -20.000000 0.000000
-167.649536 -121.965744 -20.000000 0.000000
-166.879150 -123.017769 -20.000000 0.000000
-164.528488 -126.144371 -20.000000 0.000000
-159.652145 -132.261887 -20.000000 0.000000
-156.274536 -136.236130 -20.000000 0.000000
-154.548477 -138.191147 -20.000000 0.000000
-143.688538 -149.451035 -20.000000 0.000000
-140.843323 -152.135391 -20.000000 0.000000
-139.883743 -153.018158 -20.000000 0.000000
-129.989395 -161.507797 -20.000000 0.000000
-128.970947 -162.322250 -20.000000 0.000000
-126.918930 -163.931671 -20.000000 0.000000
-125.885452 -164.726624 -20.000000 0.000000
-123.803497 -166.297089 -20.000000 0.000000
-118.513641 -170.107422 -20.000000 0.000000
-97.388840 -183.023041 -20.000000 0.000000
-88.060493 -187.689529 -20.000000 0.000000
-83.311249 -189.845367 -20.000000 0.000000
-77.300926 -192.370972 -20.000000 0.000000
-76.089493 -192.853333 -20.000000 0.000000
-65.056984 -196.849213 -20.000000 0.000000
-57.584000 -199.163498 -20.000000 0.000000
-52.555801 -200.549011 -20.000000 0.000000
-47.494278 -201.807648 -20.000000 0.000000
-46.224064 -202.102341 -20.000000 0.000000
-43.678299 -202.667770 -20.000000 0.000000
-41.125557 -203.201157 -20.000000 0.000000
-36.000942 -204.171402 -20.000000 0.000000
-23.096869 -206.030518 -20.000000 0.000000
-19.205540 -206.429581 -20.000000 0.000000
-17.906813 -206.546280 -20.000000 0.000000
-16.607407 -206.654800 -20.000000 0.000000
-14.006689 -206.847336 -20.000000 0.000000
-12.705428 -206.931366 -20.000000 0.000000
-8.798903 -207.134277 -20.000000 0.000000
-2.281738 -207.308502 -20.000000 0.000000
0.325998 -207.320801 -20.000000 0.000000
4.237552 -207.277740 -20.000000 0.000000
6.844485 -207.208038 -20.000000 0.000000
8.147549 -207.160889 -20.000000 0.000000
10.752706 -207.042023 -20.000000 0.000000
12.054654 -206.970291 -20.000000 0.000000
18.556311 -206.488953 -20.000000 0.000000
19.854681 -206.368134 -20.000000 0.000000
23.744707 -205.956818 -20.000000 0.000000
25.039616 -205.803391 -20.000000 0.000000
51.924931 -200.713287 -20.000000 0.000000
55.702549 -199.697937 -20.000000 0.000000
58.210136 -198.981415 -20.000000 0.000000
60.708382 -198.233444 -20.000000 0.000000
61.953983 -197.847717 -20.000000 0.000000
65.675797 -196.643616 -20.000000 0.000000
73.047943 -194.025848 -20.000000 0.000000
75.482666 -193.091629 -20.000000 0.000000
79.112411 -191.633087 -20.000000 0.000000
80.316086 -191.131760 -20.000000 0.000000
81.516556 -190.622833 -20.000000 0.000000
83.907921 -189.582413 -20.000000 0.000000
87.469864 -187.965546 -20.000000 0.000000
89.827301 -186.850403 -20.000000 0.000000
91.000732 -186.281723 -20.000000 0.000000
96.812874 -183.328369 -20.000000 0.000000
99.111206 -182.096085 -20.000000 0.000000
102.529282 -180.193680 -20.000000 0.000000
105.910782 -178.227188 -20.000000 0.000000
107.029633 -177.557526 -20.000000 0.000000
108.144302 -176.880859 -20.000000 0.000000
109.254616 -176.197189 -20.000000 0.000000
115.824379 -171.949783 -20.000000 0.000000
116.903564 -171.217896 -20.000000 0.000000
125.366867 -165.121674 -20.000000 0.000000
127.433929 -163.531708 -20.000000 0.000000
129.480881 -161.915802 -20.000000 0.000000
130.496674 -161.098236 -20.000000 0.000000
132.512726 -159.444016 -20.000000 0.000000
136.481781 -156.060089 -20.000000 0.000000
143.217972 -149.902084 -20.000000 0.000000
146.020660 -147.173279 -20.000000 0.000000
151.469269 -141.559448 -20.000000 0.000000
152.356628 -140.603989 -20.000000 0.000000
154.113144 -138.676437 -20.000000 0.000000
160.892822 -130.749786 -20.000000 0.000000
162.524765 -128.715637 -20.000000 0.000000
163.331131 -127.690903 -20.000000 0.000000
164.131012 -126.661118 -20.000000 0.000000
168.792725 -120.378708 -20.000000 0.000000
169.546524 -119.314690 -20.000000 0.000000
171.033875 -117.172607 -20.000000 0.000000
171.767441 -116.094627 -20.000000 0.000000
173.214203 -113.924835 -20.000000 0.000000
173.927261 -112.833183 -20.000000 0.000000
174.633499 -111.737007 -20.000000 0.000000
176.710571 -108.422302 -20.000000 0.000000
178.060425 -106.190872 -20.000000 0.000000
178.724777 -105.068909 -20.000000 0.000000
181.940048 -99.397415 -20.000000 0.000000
181.153259 -97.493172 -19.845749 0.000000
189.450256 -84.205872 -20.000000 0.000000
190.494446 -81.816147 -20.000000 0.000000
192.004166 -78.207535 -20.000000 0.000000
196.121231 -67.219696 -20.000000 0.000000
196.540115 -65.984863 -20.000000 0.000000
197.750061 -62.264973 -20.000000 0.000000
199.253799 -57.270828 -20.000000 0.000000
199.958389 -54.759995 -20.000000 0.000000
201.581314 -48.445805 -20.000000 0.000000
203.004898 -42.083683 -20.000000 0.000000
171.803558 -28.902832 -16.806562 0.000000
169.618210 -24.164755 -16.528067 0.000000
169.276047 -23.030725 -16.480284 0.000000
168.976639 -21.908436 -16.437399 0.000000
168.203751 -18.588615 -16.325186 0.000000
167.711914 -15.337469 -16.246473 0.000000
167.612198 -14.265913 -16.227800 0.000000
167.560089 -13.200512 -16.214396 0.000000
167.508072 -12.136876 -16.201651 0.000000
167.456131 -11.074821 -16.189569 0.000000
167.559204 -6.853917 -16.177740 0.000000
167.701721 -4.747687 -16.184454 0.000000
167.861542 -3.695759 -16.197309 0.000000
168.181931 -1.586719 -16.225019 0.000000
169.470703 3.731185 -16.352591 0.000000
171.317261 8.087199 -16.545164 0.000000
172.684067 10.330152 -16.688395 0.000000
206.574219 17.582064 -20.000000 0.000000
206.205688 21.476376 -20.000000 0.000000
206.066528 22.772882 -20.000000 0.000000
205.919235 24.068478 -20.000000 0.000000
205.763794 25.363134 -20.000000 0.000000
205.428482 27.949348 -20.000000 0.000000
205.248627 29.240891 -20.000000 0.000000
205.060654 30.531168 -20.000000 0.000000
204.864578 31.820297 -20.000000 0.000000
204.227753 35.679905 -20.000000 0.000000
202.459503 44.633801 -20.000000 0.000000
201.882034 47.176949 -20.000000 0.000000
201.581329 48.445694 -20.000000 0.000000
201.272675 49.712605 -20.000000 0.000000
199.958435 54.759911 -20.000000 0.000000
198.889664 58.522884 -20.000000 0.000000
197.354599 63.507408 -20.000000 0.000000
196.121246 67.219658 -20.000000 0.000000
194.818085 70.907928 -20.000000 0.000000
194.368271 72.131821 -20.000000 0.000000
192.004181 78.207466 -20.000000 0.000000
191.508530 79.413551 -20.000000 0.000000
188.916901 85.395729 -20.000000 0.000000
187.272095 88.944870 -20.000000 0.000000
181.940033 99.397415 -20.000000 0.000000
180.032318 102.812416 -20.000000 0.000000
177.389008 107.308685 -20.000000 0.000000
174.633484 111.737015 -20.000000 0.000000
173.927292 112.833176 -20.000000 0.000000
173.214203 113.924828 -20.000000 0.000000
172.494232 115.011986 -20.000000 0.000000
168.631531 120.263741 -19.980900 0.000000
167.565201 121.100288 -19.944386 0.000000
166.503235 121.934311 -19.908882 0.000000
162.648865 125.517319 -19.819393 0.000000
158.152542 131.860306 -19.863979 0.000000
156.330719 135.422195 -19.952583 0.000000
151.469254 141.559464 -20.000000 0.000000
150.576019 142.509247 -20.000000 0.000000
146.020706 147.173264 -20.000000 0.000000
145.092163 148.088776 -20.000000 0.000000
143.217987 149.902084 -20.000000 0.000000
142.272415 150.799850 -20.000000 0.000000
139.401932 153.457260 -20.000000 0.000000
138.433960 154.331009 -20.000000 0.000000
135.497528 156.915436 -20.000000 0.000000
134.507889 157.764542 -20.000000 0.000000
133.512939 158.607437 -20.000000 0.000000
126.402939 164.329926 -20.000000 0.000000
124.325905 165.906860 -20.000000 0.000000
123.280006 166.685516 -20.000000 0.000000
121.173584 168.223053 -20.000000 0.000000
119.048019 169.733887 -20.000000 0.000000
116.903580 171.217926 -20.000000 0.000000
110.360703 175.506531 -20.000000 0.000000
103.660568 179.545273 -20.000000 0.000000
92.170547 185.705719 -20.000000 0.000000
91.000763 186.281738 -20.000000 0.000000
89.827309 186.850433 -20.000000 0.000000
85.098625 189.050903 -20.000000 0.000000
80.316109 191.131744 -20.000000 0.000000
76.695618 192.613098 -20.000000 0.000000
75.482651 193.091675 -20.000000 0.000000
68.144096 195.801971 -20.000000 0.000000
60.708462 198.233475 -20.000000 0.000000
59.460464 198.611389 -20.000000 0.000000
56.957478 199.343597 -20.000000 0.000000
51.924919 200.713272 -20.000000 0.000000
48.128792 201.657257 -20.000000 0.000000
45.588379 202.246689 -20.000000 0.000000
41.764370 203.070831 -20.000000 0.000000
36.642868 204.057190 -20.000000 0.000000
32.786301 204.712219 -20.000000 0.000000
31.498146 204.914337 -20.000000 0.000000
26.333542 205.641846 -20.000000 0.000000
25.039633 205.803391 -20.000000 0.000000
22.448936 206.102066 -20.000000 0.000000
21.152250 206.239182 -20.000000 0.000000
15.957585 206.706024 -20.000000 0.000000
14.657091 206.802292 -20.000000 0.000000
12.054669 206.970322 -20.000000 0.000000
8.147576 207.160904 -20.000000 0.000000
6.844485 207.208054 -20.000000 0.000000
4.237553 207.277725 -20.000000 0.000000
2.933858 207.300293 -20.000000 0.000000
-3.585656 207.290054 -20.000000 0.000000
-6.192736 207.228546 -20.000000 0.000000
-16.607407 206.654816 -20.000000 0.000000
-19.205490 206.429565 -20.000000 0.000000
-21.800587 206.171661 -20.000000 0.000000
-25.686672 205.723633 -20.000000 0.000000
-26.980009 205.557999 -20.000000 0.000000
-29.563442 205.202408 -20.000000 0.000000
-30.853569 205.012375 -20.000000 0.000000
-32.142361 204.814301 -20.000000 0.000000
-41.125496 203.201187 -20.000000 0.000000
-42.402660 202.938507 -20.000000 0.000000
-44.952030 202.389069 -20.000000 0.000000
-53.816067 200.214508 -20.000000 0.000000
-57.584007 199.163513 -20.000000 0.000000
-58.835464 198.797409 -20.000000 0.000000
-60.084541 198.423477 -20.000000 0.000000
-63.817616 197.254501 -20.000000 0.000000
-66.293755 196.436142 -20.000000 0.000000
-73.657623 193.795197 -20.000000 0.000000
-74.874992 193.328125 -20.000000 0.000000
-76.089424 192.853363 -20.000000 0.000000
-77.300888 192.370956 -20.000000 0.000000
-84.503578 189.317627 -20.000000 0.000000
-85.692543 188.782425 -20.000000 0.000000
-86.878311 188.239700 -20.000000 0.000000
-88.060501 187.689545 -20.000000 0.000000
-90.414474 186.567001 -20.000000 0.000000
-91.585945 185.994751 -20.000000 0.000000
-93.918213 184.828003 -20.000000 0.000000
-97.388756 183.023102 -20.000000 0.000000
-99.683304 181.783569 -20.000000 0.000000
-105.349686 178.559402 -20.000000 0.000000
-107.587502 177.220108 -20.000000 0.000000
-108.699982 176.539917 -20.000000 0.000000
-109.808014 175.852875 -20.000000 0.000000
-110.911942 175.158707 -20.000000 0.000000
-116.364471 171.584763 -20.000000 0.000000
-118.513641 170.107407 -20.000000 0.000000
-120.643875 168.603302 -20.000000 0.000000
-122.755127 167.072479 -20.000000 0.000000
-124.846817 165.515244 -20.000000 0.000000
-126.918930 163.931686 -20.000000 0.000000
-127.947495 163.130219 -20.000000 0.000000
-132.010498 159.860107 -20.000000 0.000000
-133.013474 159.026520 -20.000000 0.000000
-135.990250 156.488571 -20.000000 0.000000
-138.918503 153.894989 -20.000000 0.000000
-139.883728 153.018158 -20.000000 0.000000
-141.797333 151.246628 -20.000000 0.000000
-142.745819 150.351761 -20.000000 0.000000
-147.402679 145.789124 -20.000000 0.000000
-150.127045 142.982117 -20.000000 0.000000
-151.023285 142.035156 -20.000000 0.000000
-160.480835 131.255188 -20.000000 0.000000
-164.528458 126.144409 -20.000000 0.000000
-169.920807 118.781082 -20.000000 0.000000
-174.983948 111.187378 -20.000000 0.000000
-175.679810 110.084633 -20.000000 0.000000
-176.368744 108.977493 -20.000000 0.000000
-180.354645 102.245926 -20.000000 0.000000
-182.251648 98.824860 -20.000000 0.000000
-186.991409 89.533409 -20.000000 0.000000
-188.102814 87.174232 -20.000000 0.000000
-191.757278 78.810989 -20.000000 0.000000
-195.478317 69.067024 -20.000000 0.000000
-195.908859 67.836082 -20.000000 0.000000
-196.746597 65.366623 -20.000000 0.000000
-200.129608 54.130913 -20.000000 0.000000
-201.115295 50.345364 -20.000000 0.000000
-202.029373 46.542000 -20.000000 0.000000
-203.392868 40.166683 -20.000000 0.000000
-204.338913 35.037518 -20.000000 0.000000
-204.763458 32.464352 -20.000000 0.000000
-205.515350 27.303284 -20.000000 0.000000
-205.993896 23.420803 -20.000000 0.000000
-206.272186 20.827982 -20.000000 0.000000
-206.399124 19.530293 -20.000000 0.000000
-206.628448 16.932491 -20.000000 0.000000
-207.120148 9.124670 -20.000000 0.000000
-207.284149 3.911661 -20.000000 0.000000
-207.316956 1.303944 -20.000000 0.000000
-169.353302 -2.130418 -20.000000 0.000000
-169.246124 -6.389842 -20.000000 0.000000
-169.202591 -7.454172 -20.000000 0.000000
-168.800888 -13.832601 -20.000000 0.000000
-167.440826 -25.468519 -20.000000 0.000000
-167.277374 -26.521063 -20.000000 0.000000
-167.107208 -27.572742 -20.000000 0.000000
-166.930481 -28.623156 -20.000000 0.000000
-166.157623 -32.813316 -20.000000 0.000000
-165.947998 -33.857635 -20.000000 0.000000
-165.731766 -34.900719 -20.000000 0.000000
-165.508987 -35.942444 -20.000000 0.000000
-164.297043 -41.128605 -20.000000 0.000000
-162.020569 -49.339745 -20.000000 0.000000
-161.060837 -52.387878 -20.000000 0.000000
-160.389114 -54.409668 -20.000000 0.000000
-159.692017 -56.422813 -20.000000 0.000000
-158.222168 -60.421974 -20.000000 0.000000
-155.829956 -66.348343 -20.000000 0.000000
-154.983063 -68.303215 -20.000000 0.000000
-154.111618 -70.247284 -20.000000 0.000000
-153.215820 -72.180229 -20.000000 0.000000
-151.826691 -75.058212 -20.000000 0.000000
-151.351624 -76.011581 -20.000000 0.000000
-149.890533 -78.853699 -20.000000 0.000000
-148.376099 -81.667686 -20.000000 0.000000
-147.859528 -82.599243 -20.000000 0.000000
-144.080841 -89.026901 -20.000000 0.000000
-139.420929 -96.160667 -20.000000 0.000000
-137.581833 -98.774010 -20.000000 0.000000
-136.957870 -99.637428 -20.000000 0.000000
-135.693741 -101.352280 -20.000000 0.000000
-133.101288 -104.733551 -20.000000 0.000000
-130.424576 -108.048653 -20.000000 0.000000
-128.362762 -110.490173 -20.000000 0.000000
-126.962776 -112.096092 -20.000000 0.000000
-125.542732 -113.684219 -20.000000 0.000000
-124.102837 -115.254356 -20.000000 0.000000
-120.417587 -119.099426 -20.000000 0.000000
-118.909927 -120.604782 -20.000000 0.000000
-118.149055 -121.350227 -20.000000 0.000000
-112.693703 -126.432602 -20.000000 0.000000
-111.896317 -127.138870 -20.000000 0.000000
-108.662628 -129.913452 -20.000000 0.000000
-106.192162 -131.940536 -20.000000 0.000000
-104.524132 -133.265839 -20.000000 0.000000
-101.991173 -135.214203 -20.000000 0.000000
-101.138718 -135.852997 -20.000000 0.000000
-99.421906 -137.114410 -20.000000 0.000000
-98.557579 -137.737015 -20.000000 0.000000
-96.817299 -138.965790 -20.000000 0.000000
-93.290886 -141.357285 -20.000000 0.000000
-92.400032 -141.941208 -20.000000 0.000000
-89.705513 -143.659332 -20.000000 0.000000
-86.979126 -145.326248 -20.000000 0.000000
-83.295837 -147.468262 -20.000000 0.000000
-80.498634 -149.013611 -20.000000 0.000000
-79.559814 -149.516922 -20.000000 0.000000
-78.617912 -150.014313 -20.000000 0.000000
-76.724678 -150.991409 -20.000000 0.000000
-74.819298 -151.944550 -20.000000 0.000000
-66.103195 -155.934113 -20.000000 0.000000
-58.176971 -159.061371 -20.000000 0.000000
-57.175423 -159.424103 -20.000000 0.000000
-56.171623 -159.780548 -20.000000 0.000000
-53.146992 -160.811935 -20.000000 0.000000
-44.991764 -163.281418 -20.000000 0.000000
-43.963982 -163.561157 -20.000000 0.000000
-39.835655 -164.615295 -20.000000 0.000000
-37.761845 -165.103348 -20.000000 0.000000
-36.722698 -165.337631 -20.000000 0.000000
-33.596680 -166.001022 -20.000000 0.000000
-29.410242 -166.793655 -20.000000 0.000000
-26.258051 -167.318832 -20.000000 0.000000
-18.868553 -168.312363 -20.000000 0.000000
-13.567101 -168.822433 -20.000000 0.000000
-11.442489 -168.979736 -20.000000 0.000000
-9.316037 -169.110275 -20.000000 0.000000
-7.188103 -169.214096 -20.000000 0.000000
-6.123743 -169.255966 -20.000000 0.000000
1.331475 -169.361465 -20.000000 0.000000
6.655955 -169.235870 -20.000000 0.000000
8.784140 -169.138733 -20.000000 0.000000
16.219858 -168.588257 -20.000000 0.000000
27.835396 -167.063660 -20.000000 0.000000
29.934614 -166.700317 -20.000000 0.000000
35.161255 -165.676697 -20.000000 0.000000
41.386898 -164.232193 -20.000000 0.000000
47.553528 -162.553848 -20.000000 0.000000
55.668896 -159.956421 -20.000000 0.000000
57.676472 -159.243561 -20.000000 0.000000
59.674995 -158.505463 -20.000000 0.000000
66.593277 -155.725433 -20.000000 0.000000
71.456711 -153.554626 -20.000000 0.000000
72.421082 -153.102142 -20.000000 0.000000
75.296829 -151.708496 -20.000000 0.000000
76.249466 -151.231949 -20.000000 0.000000
86.521660 -145.599045 -20.000000 0.000000
91.056854 -142.806625 -20.000000 0.000000
93.735008 -141.063217 -20.000000 0.000000
96.379799 -139.269592 -20.000000 0.000000
97.253815 -138.660645 -20.000000 0.000000
101.565453 -135.534286 -20.000000 0.000000
104.104530 -133.593903 -20.000000 0.000000
113.881500 -125.363808 -20.000000 0.000000
115.449409 -123.921425 -20.000000 0.000000
119.288605 -120.230255 -20.000000 0.000000
120.042480 -119.477539 -20.000000 0.000000
120.791580 -118.720131 -20.000000 0.000000
121.535858 -117.958115 -20.000000 0.000000
123.009949 -116.420082 -20.000000 0.000000
124.464622 -114.863586 -20.000000 0.000000
125.899597 -113.288902 -20.000000 0.000000
126.609604 -112.494850 -20.000000 0.000000
128.014618 -110.893364 -20.000000 0.000000
129.399460 -109.274254 -20.000000 0.000000
130.084152 -108.458282 -20.000000 0.000000
130.763748 -107.637955 -20.000000 0.000000
132.107361 -105.984573 -20.000000 0.000000
133.430023 -104.314499 -20.000000 0.000000
135.374405 -101.778465 -20.000000 0.000000
136.011841 -100.925056 -20.000000 0.000000
140.321915 -94.841156 -20.000000 0.000000
145.462814 -86.750526 -20.000000 0.000000
146.542526 -84.913918 -20.000000 0.000000
148.632187 -81.200706 -20.000000 0.000000
150.627792 -77.436119 -20.000000 0.000000
152.528061 -73.622482 -20.000000 0.000000
155.620529 -66.838081 -20.000000 0.000000
156.853867 -63.890099 -20.000000 0.000000
158.031387 -60.919289 -20.000000 0.000000
158.411423 -59.924141 -20.000000 0.000000
159.152649 -57.926823 -20.000000 0.000000
159.868683 -55.920341 -20.000000 0.000000
160.895294 -52.894085 -20.000000 0.000000
161.547867 -50.866112 -20.000000 0.000000
162.478836 -47.809090 -20.000000 0.000000
163.351944 -44.735054 -20.000000 0.000000
163.630066 -43.706783 -20.000000 0.000000
164.425583 -40.611717 -20.000000 0.000000
165.162521 -37.502274 -20.000000 0.000000
165.395111 -36.462738 -20.000000 0.000000
165.840698 -34.379398 -20.000000 0.000000
167.820572 -22.832724 -20.000000 0.000000
167.960861 -21.776772 -20.000000 0.000000
168.221512 -19.662312 -20.000000 0.000000
167.696640 -15.336069 -19.885424 0.000000
167.440979 -11.073822 -19.815790 0.000000
167.439713 -8.959962 -19.800734 0.000000
167.544067 -6.853297 -19.801313 0.000000
167.596252 -5.799815 -19.802774 0.000000
169.325668 3.727954 -20.000000 0.000000
169.064468 10.113590 -20.000000 0.000000
168.997513 11.176744 -20.000000 0.000000
168.662888 15.424363 -20.000000 0.000000
168.455521 17.544680 -20.000000 0.000000
168.094528 20.719906 -20.000000 0.000000
167.960876 21.776709 -20.000000 0.000000
167.673645 23.887697 -20.000000 0.000000
167.019684 28.098017 -20.000000 0.000000
166.459839 31.244247 -20.000000 0.000000
166.053665 33.335629 -20.000000 0.000000
165.840698 34.379364 -20.000000 0.000000
165.395142 36.462696 -20.000000 0.000000
164.923401 38.540241 -20.000000 0.000000
164.677750 39.576721 -20.000000 0.000000
164.425552 40.611668 -20.000000 0.000000
164.166870 41.645031 -20.000000 0.000000
162.776337 46.786182 -20.000000 0.000000
161.547882 50.866066 -20.000000 0.000000
160.895279 52.894039 -20.000000 0.000000
158.785202 58.926617 -20.000000 0.000000
156.037857 65.857941 -20.000000 0.000000
155.620544 66.838043 -20.000000 0.000000
155.197083 67.815483 -20.000000 0.000000
152.528076 73.622452 -20.000000 0.000000
151.111877 76.487183 -20.000000 0.000000
150.627792 77.436050 -20.000000 0.000000
149.139984 80.264244 -20.000000 0.000000
148.118530 82.133865 -20.000000 0.000000
147.598999 83.063828 -20.000000 0.000000
147.073685 83.990501 -20.000000 0.000000
146.542511 84.913879 -20.000000 0.000000
146.005554 85.833839 -20.000000 0.000000
141.503769 93.068542 -20.000000 0.000000
140.321930 94.841103 -20.000000 0.000000
136.011841 100.925003 -20.000000 0.000000
135.374405 101.778427 -20.000000 0.000000
134.731598 102.627838 -20.000000 0.000000
132.771332 105.151573 -20.000000 0.000000
132.107330 105.984550 -20.000000 0.000000
129.399445 109.274231 -20.000000 0.000000
128.014648 110.893288 -20.000000 0.000000
125.899597 113.288879 -20.000000 0.000000
118.530083 120.978119 -20.000000 0.000000
117.766899 121.721184 -20.000000 0.000000
115.449417 123.921425 -20.000000 0.000000
113.881516 125.363777 -20.000000 0.000000
107.432190 130.932831 -20.000000 0.000000
101.565460 135.534271 -20.000000 0.000000
98.990273 137.426392 -20.000000 0.000000
98.124001 138.046249 -20.000000 0.000000
92.845963 141.649963 -20.000000 0.000000
91.056870 142.806625 -20.000000 0.000000
79.089302 149.766388 -20.000000 0.000000
76.249489 151.231949 -20.000000 0.000000
75.296860 151.708527 -20.000000 0.000000
67.571411 155.303528 -20.000000 0.000000
66.593277 155.725449 -20.000000 0.000000
61.663994 157.742310 -20.000000 0.000000
60.670715 158.126984 -20.000000 0.000000
56.673832 159.603134 -20.000000 0.000000
54.661758 160.303375 -20.000000 0.000000
52.641064 160.978271 -20.000000 0.000000
49.594479 161.942780 -20.000000 0.000000
44.478111 163.422089 -20.000000 0.000000
40.353119 164.489243 -20.000000 0.000000
37.242489 165.221298 -20.000000 0.000000
35.161274 165.676697 -20.000000 0.000000
32.029171 166.310608 -20.000000 0.000000
27.835445 167.063675 -20.000000 0.000000
24.678400 167.559097 -20.000000 0.000000
22.568827 167.856262 -20.000000 0.000000
21.512640 167.994904 -20.000000 0.000000
18.339182 168.370880 -20.000000 0.000000
16.219898 168.588272 -20.000000 0.000000
13.036192 168.864258 -20.000000 0.000000
10.911015 169.014847 -20.000000 0.000000
9.847816 169.080170 -20.000000 0.000000
7.720244 169.190643 -20.000000 0.000000
4.526638 169.306198 -20.000000 0.000000
-1.864040 169.356461 -20.000000 0.000000
-3.994205 169.319611 -20.000000 0.000000
-6.123744 169.255966 -20.000000 0.000000
-24.151245 167.635895 -20.000000 0.000000
-26.258041 167.318863 -20.000000 0.000000
-27.309826 167.150391 -20.000000 0.000000
-28.360620 166.975327 -20.000000 0.000000
-33.596634 166.001022 -20.000000 0.000000
-35.682098 165.565292 -20.000000 0.000000
-38.799438 164.862640 -20.000000 0.000000
-39.835655 164.615311 -20.000000 0.000000
-46.017807 162.995224 -20.000000 0.000000
-50.103497 161.786011 -20.000000 0.000000
-51.119984 161.467758 -20.000000 0.000000
-53.146980 160.811920 -20.000000 0.000000
-55.165562 160.130692 -20.000000 0.000000
-56.171574 159.780563 -20.000000 0.000000
-57.175446 159.424103 -20.000000 0.000000
-72.902138 152.873688 -20.000000 0.000000
-75.773476 151.471008 -20.000000 0.000000
-83.295723 147.468323 -20.000000 0.000000
-84.221710 146.941422 -20.000000 0.000000
-85.144142 146.408859 -20.000000 0.000000
-86.979111 145.326263 -20.000000 0.000000
-88.800163 144.220703 -20.000000 0.000000
-91.505440 142.519638 -20.000000 0.000000
-92.400009 141.941254 -20.000000 0.000000
-100.282318 136.486420 -20.000000 0.000000
-105.360191 132.605865 -20.000000 0.000000
-109.477524 129.227524 -20.000000 0.000000
-114.275177 125.005066 -20.000000 0.000000
-115.838463 123.557816 -20.000000 0.000000
-116.613297 122.826790 -20.000000 0.000000
-117.383469 122.090988 -20.000000 0.000000
-118.909904 120.604797 -20.000000 0.000000
-120.417618 119.099449 -20.000000 0.000000
-121.906212 117.575325 -20.000000 0.000000
-122.643250 116.806328 -20.000000 0.000000
-123.375374 116.032753 -20.000000 0.000000
-124.825180 114.471642 -20.000000 0.000000
-129.055191 109.680626 -20.000000 0.000000
-134.408173 103.051079 -20.000000 0.000000
-135.053589 102.203766 -20.000000 0.000000
-137.581833 98.774101 -20.000000 0.000000
-138.200333 97.906822 -20.000000 0.000000
-138.813339 97.035751 -20.000000 0.000000
-140.619507 94.399353 -20.000000 0.000000
-141.210388 93.513130 -20.000000 0.000000
-143.518066 89.931366 -20.000000 0.000000
-144.080841 89.026939 -20.000000 0.000000
-145.734879 86.292686 -20.000000 0.000000
-148.376099 81.667740 -20.000000 0.000000
-148.886810 80.732925 -20.000000 0.000000
-149.890549 78.853699 -20.000000 0.000000
-152.295776 74.101822 -20.000000 0.000000
-152.758835 73.142464 -20.000000 0.000000
-155.409576 67.327148 -20.000000 0.000000
-156.244171 65.366982 -20.000000 0.000000
-156.652206 64.383011 -20.000000 0.000000
-159.334015 57.426094 -20.000000 0.000000
-159.692047 56.422863 -20.000000 0.000000
-161.060852 52.387882 -20.000000 0.000000
-162.020569 49.339836 -20.000000 0.000000
-162.628387 47.297882 -20.000000 0.000000
-162.922638 46.274158 -20.000000 0.000000
-163.210449 45.248558 -20.000000 0.000000
-166.557266 30.720739 -20.000000 0.000000
-166.747208 29.672419 -20.000000 0.000000
-166.930511 28.623177 -20.000000 0.000000
-167.107239 27.572779 -20.000000 0.000000
-167.277359 26.521093 -20.000000 0.000000
-168.028534 21.248457 -20.000000 0.000000
-168.509857 17.015013 -20.000000 0.000000
-168.710541 14.893975 -20.000000 0.000000
-168.884567 12.770628 -20.000000 0.000000
-169.031998 10.645223 -20.000000 0.000000
-169.095444 9.581996 -20.000000 0.000000
-169.152359 8.518284 -20.000000 0.000000
-169.336563 3.195555 -20.000000 0.000000
-169.353333 2.130413 -20.000000 0.000000
-143.046814 0.000075 -20.000000 0.000000
-143.043915 -0.899754 -20.000000 0.000000
-143.001556 -3.598370 -20.000000 0.000000
-142.908112 -6.295764 -20.000000 0.000000
-142.817612 -8.092889 -20.000000 0.000000
-142.639496 -10.786052 -20.000000 0.000000
-141.420258 -21.510674 -20.000000 0.000000
-140.989120 -24.175062 -20.000000 0.000000
-139.788513 -30.356920 -20.000000 0.000000
-139.395676 -32.112862 -20.000000 0.000000
-138.980637 -33.863686 -20.000000 0.000000
-138.543701 -35.609173 -20.000000 0.000000
-138.316971 -36.479870 -20.000000 0.000000
-137.355545 -39.947666 -20.000000 0.000000
-136.577499 -42.532120 -20.000000 0.000000
-136.031693 -44.246708 -20.000000 0.000000
-132.981598 -52.709217 -20.000000 0.000000
-132.308075 -54.377743 -20.000000 0.000000
-131.963547 -55.208824 -20.000000 0.000000
-129.786621 -60.148193 -20.000000 0.000000
-129.019745 -61.775948 -20.000000 0.000000
-128.232574 -63.394032 -20.000000 0.000000
-127.831207 -64.199295 -20.000000 0.000000
-126.175827 -67.394569 -20.000000 0.000000
-125.749451 -68.186844 -20.000000 0.000000
-125.318176 -68.976418 -20.000000 0.000000
-123.543350 -72.106895 -20.000000 0.000000
-122.626617 -73.655312 -20.000000 0.000000
-120.734863 -76.716690 -20.000000 0.000000
-120.250031 -77.474487 -20.000000 0.000000
-116.201324 -83.424278 -20.000000 0.000000
-115.142822 -84.879471 -20.000000 0.000000
-114.606712 -85.601967 -20.000000 0.000000
-114.066002 -86.320953 -20.000000 0.000000
-113.520851 -87.036690 -20.000000 0.000000
-111.858505 -89.162987 -20.000000 0.000000
-109.580162 -91.948662 -20.000000 0.000000
-108.414955 -93.319878 -20.000000 0.000000
-106.634880 -95.348671 -20.000000 0.000000
-104.816948 -97.343590 -20.000000 0.000000
-99.141838 -103.117874 -20.000000 0.000000
-97.836967 -104.356544 -20.000000 0.000000
-91.776215 -109.724609 -20.000000 0.000000
-91.084267 -110.299690 -20.000000 0.000000
-88.280861 -112.556000 -20.000000 0.000000
-86.858063 -113.657562 -20.000000 0.000000
-86.141518 -114.201607 -20.000000 0.000000
-84.698158 -115.276115 -20.000000 0.000000
-75.765030 -121.334335 -20.000000 0.000000
-75.000481 -121.808441 -20.000000 0.000000
-70.351517 -124.551437 -20.000000 0.000000
-69.566704 -124.991348 -20.000000 0.000000
-67.196060 -126.281662 -20.000000 0.000000
-64.801491 -127.526985 -20.000000 0.000000
-63.192245 -128.332169 -20.000000 0.000000
-59.943993 -129.881042 -20.000000 0.000000
-57.482872 -130.988998 -20.000000 0.000000
-55.001198 -132.050125 -20.000000 0.000000
-50.822113 -133.714294 -20.000000 0.000000
-46.592693 -135.246017 -20.000000 0.000000
-44.887802 -135.821381 -20.000000 0.000000
-44.032715 -136.100998 -20.000000 0.000000
-39.731655 -137.418320 -20.000000 0.000000
-38.866573 -137.665359 -20.000000 0.000000
-33.645092 -139.033691 -20.000000 0.000000
-31.893547 -139.445908 -20.000000 0.000000
-30.137012 -139.836060 -20.000000 0.000000
-26.609816 -140.549911 -20.000000 0.000000
-21.288246 -141.453781 -20.000000 0.000000
-17.723209 -141.944534 -20.000000 0.000000
-16.830082 -142.053314 -20.000000 0.000000
-15.041897 -142.253677 -20.000000 0.000000
-13.251376 -142.431625 -20.000000 0.000000
-12.355286 -142.512146 -20.000000 0.000000
-9.664299 -142.719879 -20.000000 0.000000
-6.969806 -142.876953 -20.000000 0.000000
-2.473987 -143.025467 -20.000000 0.000000
-1.574348 -143.038162 -20.000000 0.000000
-0.674750 -143.045105 -20.000000 0.000000
2.923813 -143.016815 -20.000000 0.000000
3.823221 -142.995636 -20.000000 0.000000
7.419082 -142.854187 -20.000000 0.000000
8.317449 -142.804840 -20.000000 0.000000
10.113085 -142.688782 -20.000000 0.000000
11.907078 -142.550278 -20.000000 0.000000
12.803436 -142.472702 -20.000000 0.000000
13.699233 -142.389236 -20.000000 0.000000
17.276756 -141.999542 -20.000000 0.000000
20.843365 -141.520004 -20.000000 0.000000
22.621845 -141.246628 -20.000000 0.000000
25.282726 -140.794678 -20.000000 0.000000
27.051750 -140.465515 -20.000000 0.000000
29.697130 -139.930099 -20.000000 0.000000
30.576641 -139.740570 -20.000000 0.000000
31.454922 -139.545502 -20.000000 0.000000
41.026291 -137.037231 -20.000000 0.000000
49.558395 -134.187653 -20.000000 0.000000
50.401379 -133.873322 -20.000000 0.000000
52.081299 -133.228729 -20.000000 0.000000
57.070660 -131.168991 -20.000000 0.000000
57.894516 -130.807465 -20.000000 0.000000
59.535271 -130.068878 -20.000000 0.000000
65.202217 -127.322563 -20.000000 0.000000
71.523384 -123.882065 -20.000000 0.000000
73.076012 -122.972610 -20.000000 0.000000
73.847969 -122.510574 -20.000000 0.000000
74.617065 -122.043663 -20.000000 0.000000
75.383148 -121.571968 -20.000000 0.000000
76.906418 -120.614105 -20.000000 0.000000
80.660736 -118.136383 -20.000000 0.000000
82.140434 -117.112556 -20.000000 0.000000
88.634377 -112.277847 -20.000000 0.000000
90.736969 -110.585548 -20.000000 0.000000
95.516212 -106.484818 -20.000000 0.000000
96.848091 -105.274918 -20.000000 0.000000
100.110222 -102.177811 -20.000000 0.000000
102.648918 -99.627129 -20.000000 0.000000
106.334511 -95.683517 -20.000000 0.000000
107.529686 -94.338394 -20.000000 0.000000
109.290482 -92.292763 -20.000000 0.000000
111.012337 -90.214340 -20.000000 0.000000
115.938393 -83.789345 -20.000000 0.000000
116.983177 -82.324364 -20.000000 0.000000
117.498619 -81.587036 -20.000000 0.000000
118.009529 -80.846466 -20.000000 0.000000
118.515579 -80.102600 -20.000000 0.000000
119.017044 -79.355591 -20.000000 0.000000
119.513794 -78.605484 -20.000000 0.000000
120.005806 -77.852249 -20.000000 0.000000
120.493065 -77.095963 -20.000000 0.000000
121.453316 -75.574188 -20.000000 0.000000
122.394409 -74.040588 -20.000000 0.000000
124.661819 -70.155525 -20.000000 0.000000
125.100571 -69.370117 -20.000000 0.000000
126.806038 -66.201141 -20.000000 0.000000
128.431213 -62.990379 -20.000000 0.000000
129.596832 -60.555996 -20.000000 0.000000
131.436752 -56.451260 -20.000000 0.000000
131.789200 -55.623508 -20.000000 0.000000
133.794037 -50.611832 -20.000000 0.000000
134.109589 -49.769310 -20.000000 0.000000
134.419983 -48.924831 -20.000000 0.000000
135.608154 -45.528015 -20.000000 0.000000
136.443008 -42.961349 -20.000000 0.000000
137.229279 -40.379417 -20.000000 0.000000
137.480637 -39.515572 -20.000000 0.000000
138.201721 -36.914654 -20.000000 0.000000
138.431046 -36.044685 -20.000000 0.000000
138.873474 -34.300549 -20.000000 0.000000
139.293915 -32.551010 -20.000000 0.000000
139.692352 -30.796309 -20.000000 0.000000
139.883270 -29.917139 -20.000000 0.000000
140.248520 -28.155186 -20.000000 0.000000
140.591583 -26.388855 -20.000000 0.000000
141.487213 -21.065836 -20.000000 0.000000
141.616791 -20.175520 -20.000000 0.000000
141.859360 -18.392580 -20.000000 0.000000
142.079483 -16.606737 -20.000000 0.000000
142.181122 -15.712800 -20.000000 0.000000
142.531418 -12.131222 -20.000000 0.000000
142.734924 -9.439863 -20.000000 0.000000
142.791473 -8.541970 -20.000000 0.000000
142.927216 -5.846341 -20.000000 0.000000
142.961182 -4.947279 -20.000000 0.000000
142.989456 -4.048068 -20.000000 0.000000
143.046158 -0.449816 -20.000000 0.000000
142.842346 7.643695 -20.000000 0.000000
142.791443 8.541923 -20.000000 0.000000
142.604965 11.234530 -20.000000 0.000000
142.531387 12.131207 -20.000000 0.000000
142.367493 13.923071 -20.000000 0.000000
141.210922 22.843834 -20.000000 0.000000
141.064438 23.731518 -20.000000 0.000000
140.754883 25.504070 -20.000000 0.000000
140.591583 26.388819 -20.000000 0.000000
140.422836 27.272526 -20.000000 0.000000
139.692337 30.796282 -20.000000 0.000000
139.086456 33.426418 -20.000000 0.000000
138.654968 35.173302 -20.000000 0.000000
138.431015 36.044655 -20.000000 0.000000
137.966675 37.783070 -20.000000 0.000000
137.726425 38.650101 -20.000000 0.000000
136.972565 41.241695 -20.000000 0.000000
136.170181 43.818672 -20.000000 0.000000
134.109573 49.769257 -20.000000 0.000000
133.794037 50.611828 -20.000000 0.000000
132.136429 54.793488 -20.000000 0.000000
127.219879 65.402283 -20.000000 0.000000
126.806015 66.201134 -20.000000 0.000000
126.387146 66.997375 -20.000000 0.000000
125.963272 67.790977 -20.000000 0.000000
125.534409 68.581879 -20.000000 0.000000
124.661819 70.155510 -20.000000 0.000000
122.394394 74.040558 -20.000000 0.000000
121.926239 74.808815 -20.000000 0.000000
120.975571 76.336548 -20.000000 0.000000
120.493057 77.095940 -20.000000 0.000000
117.498650 81.586952 -20.000000 0.000000
116.463074 83.058502 -20.000000 0.000000
115.938400 83.789299 -20.000000 0.000000
115.409096 84.516853 -20.000000 0.000000
113.246597 87.393211 -20.000000 0.000000
111.012444 90.214348 -20.000000 0.000000
110.442749 90.910706 -20.000000 0.000000
109.868797 91.603561 -20.000000 0.000000
109.290466 92.292747 -20.000000 0.000000
108.120895 93.660210 -20.000000 0.000000
105.122627 97.013557 -20.000000 0.000000
96.848106 105.274925 -20.000000 0.000000
92.807335 108.853874 -20.000000 0.000000
90.736969 110.585571 -20.000000 0.000000
86.500252 113.930115 -20.000000 0.000000
82.875366 116.593613 -20.000000 0.000000
82.140411 117.112534 -20.000000 0.000000
79.916191 118.641373 -20.000000 0.000000
79.168411 119.141647 -20.000000 0.000000
78.417542 119.637314 -20.000000 0.000000
76.906418 120.614120 -20.000000 0.000000
76.146309 121.095428 -20.000000 0.000000
74.617065 122.043655 -20.000000 0.000000
73.848022 122.510559 -20.000000 0.000000
73.076012 122.972603 -20.000000 0.000000
71.523384 123.882065 -20.000000 0.000000
64.400200 127.730225 -20.000000 0.000000
62.788418 128.530090 -20.000000 0.000000
51.242363 133.553680 -20.000000 0.000000
48.713436 134.496719 -20.000000 0.000000
43.604561 136.238800 -20.000000 0.000000
41.887440 136.776596 -20.000000 0.000000
38.433483 137.786926 -20.000000 0.000000
36.697300 138.259460 -20.000000 0.000000
34.955288 138.710114 -20.000000 0.000000
33.207775 139.138916 -20.000000 0.000000
32.332008 139.344910 -20.000000 0.000000
24.396717 140.950928 -20.000000 0.000000
21.732992 141.386154 -20.000000 0.000000
19.952875 141.648315 -20.000000 0.000000
19.061588 141.771103 -20.000000 0.000000
16.383301 142.105423 -20.000000 0.000000
11.907120 142.550278 -20.000000 0.000000
11.010364 142.622345 -20.000000 0.000000
10.113051 142.688782 -20.000000 0.000000
9.215449 142.749695 -20.000000 0.000000
5.621638 142.936249 -20.000000 0.000000
2.923813 143.016830 -20.000000 0.000000
1.124655 143.042313 -20.000000 0.000000
-3.373490 143.007065 -20.000000 0.000000
-7.868236 142.830124 -20.000000 0.000000
-8.766452 142.777817 -20.000000 0.000000
-9.664237 142.720001 -20.000000 0.000000
-17.723227 141.944489 -20.000000 0.000000
-21.288248 141.453766 -20.000000 0.000000
-22.177504 141.317215 -20.000000 0.000000
-29.256895 140.022980 -20.000000 0.000000
-36.262283 138.374146 -20.000000 0.000000
-38.866528 137.665359 -20.000000 0.000000
-41.456985 136.907562 -20.000000 0.000000
-46.592697 135.246002 -20.000000 0.000000
-47.442352 134.950287 -20.000000 0.000000
-49.136147 134.342834 -20.000000 0.000000
-50.822041 133.714157 -20.000000 0.000000
-53.335804 132.731491 -20.000000 0.000000
-54.169628 132.393387 -20.000000 0.000000
-62.383888 128.726883 -20.000000 0.000000
-63.998158 127.932137 -20.000000 0.000000
-64.801514 127.527077 -20.000000 0.000000
-69.566711 124.991333 -20.000000 0.000000
-71.912605 123.656670 -20.000000 0.000000
-74.232895 122.277702 -20.000000 0.000000
-78.040833 119.883224 -20.000000 0.000000
-78.793335 119.389984 -20.000000 0.000000
-80.288795 118.389473 -20.000000 0.000000
-81.031754 117.882202 -20.000000 0.000000
-83.241493 116.332336 -20.000000 0.000000
-83.971512 115.806488 -20.000000 0.000000
-88.280869 112.556145 -20.000000 0.000000
-88.987022 111.998680 -20.000000 0.000000
-94.507431 107.381302 -20.000000 0.000000
-96.516624 105.579041 -20.000000 0.000000
-99.141830 103.117874 -20.000000 0.000000
-99.788361 102.492188 -20.000000 0.000000
-103.584236 98.654465 -20.000000 0.000000
-104.202637 98.001060 -20.000000 0.000000
-105.427094 96.682587 -20.000000 0.000000
-108.999725 92.635956 -20.000000 0.000000
-110.156258 91.257652 -20.000000 0.000000
-112.971214 87.748886 -20.000000 0.000000
-113.520851 87.036659 -20.000000 0.000000
-115.142815 84.879486 -20.000000 0.000000
-118.766914 79.729439 -20.000000 0.000000
-120.734871 76.716682 -20.000000 0.000000
-123.543350 72.106880 -20.000000 0.000000
-123.994476 71.328575 -20.000000 0.000000
-125.318176 68.976440 -20.000000 0.000000
-127.013672 65.802155 -20.000000 0.000000
-129.019760 61.775948 -20.000000 0.000000
-132.308075 54.377724 -20.000000 0.000000
-132.647446 53.544556 -20.000000 0.000000
-132.981720 52.709240 -20.000000 0.000000
-133.952408 50.190826 -20.000000 0.000000
-135.172684 46.805351 -20.000000 0.000000
-136.031693 44.246750 -20.000000 0.000000
-136.577484 42.532154 -20.000000 0.000000
-138.543777 35.609230 -20.000000 0.000000
-138.980637 33.863659 -20.000000 0.000000
-139.190842 32.988930 -20.000000 0.000000
-139.395584 32.112877 -20.000000 0.000000
-139.976761 29.477198 -20.000000 0.000000
-140.834412 25.061285 -20.000000 0.000000
-141.138367 23.287907 -20.000000 0.000000
-141.282181 22.399672 -20.000000 0.000000
-141.679642 19.730160 -20.000000 0.000000
-141.916626 17.946400 -20.000000 0.000000
-142.026672 17.053553 -20.000000 0.000000
-142.323044 14.370793 -20.000000 0.000000
-142.568848 11.682968 -20.000000 0.000000
-142.639587 10.786082 -20.000000 0.000000
-142.865799 7.194554 -20.000000 0.000000
-142.908112 6.295754 -20.000000 0.000000
-143.035416 1.799330 -20.000000 0.000000
-123.707130 0.000073 -20.000000 0.000000
-123.704636 -0.778081 -20.000000 0.000000
-123.697304 -1.556086 -20.000000 0.000000
-123.645920 -3.889578 -20.000000 0.000000
-123.587196 -5.444590 -20.000000 0.000000
-123.293808 -10.103461 -20.000000 0.000000
-123.157043 -11.653495 -20.000000 0.000000
-123.081238 -12.427872 -20.000000 0.000000
-122.629623 -16.291660 -20.000000 0.000000
-122.300400 -18.602476 -20.000000 0.000000
-122.056740 -20.139387 -20.000000 0.000000
-121.927658 -20.906628 -20.000000 0.000000
-120.549576 -27.771259 -20.000000 0.000000
-120.372536 -28.528873 -20.000000 0.000000
-120.004150 -30.040730 -20.000000 0.000000
-119.416000 -32.299534 -20.000000 0.000000
-119.000275 -33.799068 -20.000000 0.000000
-118.785355 -34.546833 -20.000000 0.000000
-118.112389 -36.781818 -20.000000 0.000000
-117.640381 -38.264606 -20.000000 0.000000
-116.379097 -41.944572 -20.000000 0.000000
-115.002747 -45.582996 -20.000000 0.000000
-112.564697 -51.309334 -20.000000 0.000000
-112.239700 -52.016254 -20.000000 0.000000
-111.910385 -52.721172 -20.000000 0.000000
-110.548691 -55.519588 -20.000000 0.000000
-110.197327 -56.213795 -20.000000 0.000000
-109.117088 -58.282932 -20.000000 0.000000
-106.047653 -63.697197 -20.000000 0.000000
-105.238037 -65.026115 -20.000000 0.000000
-103.141449 -68.302864 -20.000000 0.000000
