ply
format ascii 1.0
element vertex 1129
property float32 x
property float32 y
property float32 z
property float32 I
end_header
173.662704 11.485314 -1.859850 0.000947
176.503342 13.905087 -1.892025 0.000840
419.763000 87.018372 -4.581062 0.000000
417.851501 89.366730 -4.566265 0.000000
416.928406 94.668793 -4.568825 0.000000
327.872955 131.151688 -3.773609 0.000001
321.089630 133.147446 -3.714523 0.000001
314.468506 137.411377 -3.667278 0.000001
312.682037 138.979248 -3.656559 0.000001
308.419281 144.113449 -3.637867 0.000001
307.406769 146.002838 -3.636703 0.000001
304.437408 154.094864 -3.646278 0.000001
303.938080 158.675873 -3.663906 0.000001
304.184875 163.706406 -3.691410 0.000001
304.565460 166.390076 -3.708675 0.000001
309.029724 176.479980 -3.802898 0.000001
-499.677216 -373.218689 -20.000000 0.000000
-490.130920 -385.669922 -20.000000 0.000000
-487.695557 -388.744751 -20.000000 0.000000
-480.274048 -397.877380 -20.000000 0.000000
-472.681671 -406.867981 -20.000000 0.000000
-467.526306 -412.781555 -20.000000 0.000000
-464.920929 -415.713806 -20.000000 0.000000
-462.297180 -418.629700 -20.000000 0.000000
-456.994904 -424.411591 -20.000000 0.000000
-432.251495 -449.586700 -20.000000 0.000000
-429.415588 -452.296082 -20.000000 0.000000
-414.982208 -465.574158 -20.000000 0.000000
-412.045837 -468.174835 -20.000000 0.000000
-384.898651 -490.736755 -20.000000 0.000000
-381.804443 -493.147949 -20.000000 0.000000
-378.695374 -495.539459 -20.000000 0.000000
-375.571228 -497.911377 -20.000000 0.000000
380.251892 -494.346008 -20.000000 0.000000
389.511108 -487.083679 -20.000000 0.000000
398.631836 -479.648010 -20.000000 0.000000
442.043213 -439.962738 -20.000000 0.000000
450.265472 -431.544312 -20.000000 0.000000
460.978363 -420.081543 -20.000000 0.000000
468.822235 -411.309082 -20.000000 0.000000
473.958923 -405.379395 -20.000000 0.000000
484.006409 -393.328430 -20.000000 0.000000
496.134216 -377.915833 -20.000000 0.000000
251.646912 -156.587112 -9.504572 0.000007
232.937561 -140.911911 -8.730295 0.000019
209.961319 -121.661797 -7.781721 0.000061
191.482971 -106.180138 -7.021330 0.000156
185.255249 -89.419243 -6.596609 0.000266
190.449585 -83.219574 -6.664953 0.000244
198.465378 -73.652359 -6.788515 0.000209
199.375092 -72.566574 -6.803888 0.000205
200.288910 -71.475883 -6.819597 0.000201
202.129562 -69.278984 -6.852064 0.000193
207.762207 -62.556122 -6.957972 0.000169
210.646469 -59.113628 -7.015955 0.000158
211.618698 -57.953213 -7.036074 0.000154
216.566925 -52.047253 -7.142618 0.000135
219.610260 -48.414875 -7.211576 0.000123
173.606750 -31.456734 -5.657940 0.000858
171.087357 -27.677044 -5.557781 0.000972
170.603668 -26.498787 -5.536537 0.000998
170.124817 -25.329678 -5.515724 0.001025
169.649490 -24.169226 -5.495277 0.001051
168.233414 -18.591904 -5.427784 0.001143
168.069168 -17.504530 -5.418827 0.001156
167.905457 -16.420645 -5.410103 0.001169
167.590057 -13.202879 -5.390953 0.001197
167.538315 -12.139071 -5.386726 0.001203
168.053314 -2.642656 -5.389828 0.001199
169.217621 2.660933 -5.427170 0.001144
170.818863 6.987262 -5.482426 0.001068
172.033554 9.205800 -5.524693 0.001013
173.649658 11.484448 -5.580795 0.000945
327.559601 148.066101 -11.527527 0.000001
320.802979 154.845627 -11.423256 0.000001
320.151733 157.021652 -11.435020 0.000001
321.247620 165.149826 -11.583393 0.000001
491.341248 384.126434 -20.000000 0.000000
486.470642 390.276489 -20.000000 0.000000
479.020599 399.385437 -20.000000 0.000000
473.958801 405.379364 -20.000000 0.000000
471.399872 408.352234 -20.000000 0.000000
463.611328 417.173767 -20.000000 0.000000
460.978363 420.081329 -20.000000 0.000000
447.542542 434.367493 -20.000000 0.000000
444.801636 437.173798 -20.000000 0.000000
439.267181 442.734436 -20.000000 0.000000
436.473846 445.488464 -20.000000 0.000000
427.991272 453.643951 -20.000000 0.000000
407.610657 472.041199 -20.000000 0.000000
395.607147 482.145691 -20.000000 0.000000
389.511078 487.083679 -20.000000 0.000000
386.439972 489.523804 -20.000000 0.000000
383.353485 491.944611 -20.000000 0.000000
380.251831 494.345917 -20.000000 0.000000
-375.571106 497.911469 -20.000000 0.000000
-397.121063 480.899414 -20.000000 0.000000
-403.138763 475.866119 -20.000000 0.000000
-409.092957 470.757263 -20.000000 0.000000
-417.901947 462.955017 -20.000000 0.000000
-429.415527 452.296082 -20.000000 0.000000
-435.070618 446.859039 -20.000000 0.000000
-440.657166 441.351013 -20.000000 0.000000
-451.619995 430.126465 -20.000000 0.000000
-475.231445 403.886780 -20.000000 0.000000
-494.943237 379.474243 -20.000000 0.000000
-499.677063 373.218750 -20.000000 0.000000
-373.976501 0.000221 -20.000000 0.000000
-373.909058 -7.055982 -20.000000 0.000000
-373.237030 -23.505621 -20.000000 0.000000
-372.910950 -28.198656 -20.000000 0.000000
-372.726257 -30.543587 -20.000000 0.000000
-371.839966 -39.909847 -20.000000 0.000000
-371.581635 -42.247604 -20.000000 0.000000
-370.718384 -49.250950 -20.000000 0.000000
-370.069580 -53.910007 -20.000000 0.000000
-368.191528 -65.519196 -20.000000 0.000000
-366.889771 -72.454552 -20.000000 0.000000
-362.781372 -90.815376 -20.000000 0.000000
-361.610321 -95.371605 -20.000000 0.000000
-361.003326 -97.643959 -20.000000 0.000000
-360.382111 -99.912315 -20.000000 0.000000
-357.754761 -108.946312 -20.000000 0.000000
-357.063293 -111.194511 -20.000000 0.000000
-349.367554 -133.416794 -20.000000 0.000000
-348.521484 -135.611633 -20.000000 0.000000
-345.900940 -142.163025 -20.000000 0.000000
-342.215332 -150.819183 -20.000000 0.000000
-340.291962 -155.112213 -20.000000 0.000000
-339.308838 -157.248993 -20.000000 0.000000
-337.304047 -161.504639 -20.000000 0.000000
-329.868958 -176.193680 -20.000000 0.000000
-326.486023 -182.385971 -20.000000 0.000000
-324.165924 -186.478470 -20.000000 0.000000
-320.589874 -192.561447 -20.000000 0.000000
-318.142334 -196.578781 -20.000000 0.000000
-315.644470 -200.565094 -20.000000 0.000000
-307.852905 -212.330750 -20.000000 0.000000
-305.157654 -216.186325 -20.000000 0.000000
-302.414246 -220.007660 -20.000000 0.000000
-298.209564 -225.674225 -20.000000 0.000000
-292.438385 -233.104218 -20.000000 0.000000
-289.483032 -236.764282 -20.000000 0.000000
-286.481964 -240.386871 -20.000000 0.000000
-284.964447 -242.183884 -20.000000 0.000000
-283.435425 -243.971512 -20.000000 0.000000
-278.781921 -249.275787 -20.000000 0.000000
-275.624207 -252.762863 -20.000000 0.000000
-270.806305 -257.918060 -20.000000 0.000000
-267.540680 -261.303986 -20.000000 0.000000
-265.891968 -262.981384 -20.000000 0.000000
-259.192261 -269.587006 -20.000000 0.000000
-257.492310 -271.212280 -20.000000 0.000000
-255.780991 -272.825653 -20.000000 0.000000
-243.525513 -283.818726 -20.000000 0.000000
-241.735901 -285.345703 -20.000000 0.000000
-238.127014 -288.363098 -20.000000 0.000000
-230.797913 -294.261902 -20.000000 0.000000
-228.942520 -295.707764 -20.000000 0.000000
-225.204895 -298.564056 -20.000000 0.000000
-221.431458 -301.373291 -20.000000 0.000000
-207.952957 -310.826813 -20.000000 0.000000
-205.993927 -312.128601 -20.000000 0.000000
-194.071472 -319.678009 -20.000000 0.000000
-192.057007 -320.892273 -20.000000 0.000000
-185.968307 -324.458893 -20.000000 0.000000
-179.813507 -327.909821 -20.000000 0.000000
-175.674683 -330.145721 -20.000000 0.000000
-173.594833 -331.244019 -20.000000 0.000000
-171.507950 -332.329315 -20.000000 0.000000
-165.207169 -335.506104 -20.000000 0.000000
-160.973999 -337.557648 -20.000000 0.000000
-154.576462 -340.534668 -20.000000 0.000000
-150.281128 -342.452850 -20.000000 0.000000
-145.961334 -344.315369 -20.000000 0.000000
-139.439087 -347.007935 -20.000000 0.000000
-137.253845 -347.878021 -20.000000 0.000000
-132.867462 -349.577789 -20.000000 0.000000
-126.248024 -352.021545 -20.000000 0.000000
-119.583847 -354.340881 -20.000000 0.000000
-117.352898 -355.085968 -20.000000 0.000000
-103.873001 -359.261444 -20.000000 0.000000
-101.611244 -359.906860 -20.000000 0.000000
-94.802689 -361.759888 -20.000000 0.000000
-92.525597 -362.348938 -20.000000 0.000000
-90.244743 -362.923767 -20.000000 0.000000
-87.960419 -363.484222 -20.000000 0.000000
-74.184258 -366.543976 -20.000000 0.000000
-60.302433 -369.081787 -20.000000 0.000000
-57.979942 -369.453674 -20.000000 0.000000
-55.655132 -369.811096 -20.000000 0.000000
-53.328148 -370.153870 -20.000000 0.000000
-39.325001 -371.902313 -20.000000 0.000000
-13.521730 -373.731079 -20.000000 0.000000
-11.170867 -373.808777 -20.000000 0.000000
-8.819576 -373.871643 -20.000000 0.000000
-1.764040 -373.971436 -20.000000 0.000000
5.292032 -373.938141 -20.000000 0.000000
7.643855 -373.897522 -20.000000 0.000000
12.346344 -373.771667 -20.000000 0.000000
17.046934 -373.586914 -20.000000 0.000000
21.744764 -373.342926 -20.000000 0.000000
31.129387 -372.677795 -20.000000 0.000000
38.155392 -372.024109 -20.000000 0.000000
42.831818 -371.514771 -20.000000 0.000000
45.167660 -371.237915 -20.000000 0.000000
47.501606 -370.946533 -20.000000 0.000000
61.462849 -368.890289 -20.000000 0.000000
68.411911 -367.665009 -20.000000 0.000000
75.336502 -366.308899 -20.000000 0.000000
82.234482 -364.822266 -20.000000 0.000000
84.527390 -364.297760 -20.000000 0.000000
86.816940 -363.759033 -20.000000 0.000000
102.742554 -359.585480 -20.000000 0.000000
107.257576 -358.264679 -20.000000 0.000000
116.235794 -355.453247 -20.000000 0.000000
129.563461 -350.814880 -20.000000 0.000000
155.646606 -340.046875 -20.000000 0.000000
157.782303 -339.061218 -20.000000 0.000000
159.911758 -338.062134 -20.000000 0.000000
176.712082 -329.591583 -20.000000 0.000000
178.781555 -328.473663 -20.000000 0.000000
180.843872 -327.342682 -20.000000 0.000000
182.899185 -326.198730 -20.000000 0.000000
186.987869 -323.872345 -20.000000 0.000000
191.046936 -321.494629 -20.000000 0.000000
193.065231 -320.286713 -20.000000 0.000000
195.075882 -319.066132 -20.000000 0.000000
199.073837 -316.587067 -20.000000 0.000000
201.061020 -315.328735 -20.000000 0.000000
205.011536 -312.774780 -20.000000 0.000000
206.974686 -311.479065 -20.000000 0.000000
212.814529 -307.518677 -20.000000 0.000000
218.578705 -303.448730 -20.000000 0.000000
228.011612 -296.426117 -20.000000 0.000000
244.416840 -283.051575 -20.000000 0.000000
251.459747 -276.813568 -20.000000 0.000000
253.195801 -275.226562 -20.000000 0.000000
260.038910 -268.770386 -20.000000 0.000000
265.063721 -263.816284 -20.000000 0.000000
268.361237 -260.461182 -20.000000 0.000000
284.201355 -243.078873 -20.000000 0.000000
293.169952 -232.183441 -20.000000 0.000000
303.104675 -219.055496 -20.000000 0.000000
305.836121 -215.225555 -20.000000 0.000000
308.519135 -211.361603 -20.000000 0.000000
309.842346 -209.416992 -20.000000 0.000000
316.273651 -199.571365 -20.000000 0.000000
251.661972 -156.596436 -15.851603 0.000007
232.950546 -140.919769 -14.560186 0.000018
224.692688 -134.001236 -13.991114 0.000028
209.971725 -121.667816 -12.978113 0.000060
203.382462 -116.147255 -12.525431 0.000084
191.491577 -106.184914 -11.709948 0.000155
186.107849 -101.674362 -11.341372 0.000205
180.156982 -95.500656 -10.904680 0.000284
183.544281 -91.457726 -10.966928 0.000271
184.397369 -90.439537 -10.983698 0.000267
186.972717 -87.365723 -11.036940 0.000257
187.836807 -86.334389 -11.055670 0.000253
188.703903 -85.299454 -11.074919 0.000250
193.086929 -80.068092 -11.178797 0.000231
197.557404 -74.732338 -11.295916 0.000212
199.372681 -72.565689 -11.346617 0.000204
201.204605 -70.379181 -11.399599 0.000196
203.985565 -67.059944 -11.483412 0.000184
208.715759 -61.414169 -11.635172 0.000164
209.677094 -60.266754 -11.667406 0.000160
212.593933 -56.785351 -11.767992 0.000149
214.567017 -54.430325 -11.838373 0.000141
217.572144 -50.843521 -11.949114 0.000130
218.586487 -49.632828 -11.987429 0.000126
222.711182 -44.709743 -12.148077 0.000112
172.580551 -30.150967 -9.369308 0.000896
171.823334 -28.906185 -9.318165 0.000931
170.591110 -26.496838 -9.232529 0.000992
169.293915 -23.033173 -9.137165 0.001066
168.994751 -21.910801 -9.113434 0.001085
168.400986 -19.683292 -9.067326 0.001123
167.526138 -7.908285 -8.969200 0.001209
168.041733 -2.642474 -8.987911 0.001192
168.202454 -1.586905 -8.995800 0.001185
168.363449 -0.529440 -9.004055 0.001178
168.635223 0.530310 -9.018585 0.001165
169.912323 4.810234 -9.090481 0.001104
172.021103 9.205132 -9.212765 0.001007
173.636581 11.483584 -9.306293 0.000939
370.237244 52.746075 -20.000000 0.000000
369.544495 57.398952 -20.000000 0.000000
367.557007 68.989868 -20.000000 0.000000
367.115845 71.300224 -20.000000 0.000000
366.189941 75.912491 -20.000000 0.000000
365.206055 80.512657 -20.000000 0.000000
364.164429 85.100052 -20.000000 0.000000
363.065186 89.674004 -20.000000 0.000000
360.694550 98.778587 -20.000000 0.000000
358.766693 105.566292 -20.000000 0.000000
358.095612 107.820724 -20.000000 0.000000
357.410370 110.070740 -20.000000 0.000000
355.997620 114.557693 -20.000000 0.000000
355.270020 116.794472 -20.000000 0.000000
351.422150 127.907150 -20.000000 0.000000
348.946320 134.514755 -20.000000 0.000000
345.452179 143.249969 -20.000000 0.000000
343.622986 147.583878 -20.000000 0.000000
342.687988 149.742233 -20.000000 0.000000
341.739380 151.894455 -20.000000 0.000000
339.801788 156.181091 -20.000000 0.000000
334.723022 166.788025 -20.000000 0.000000
332.598602 170.985214 -20.000000 0.000000
327.057892 181.358337 -20.000000 0.000000
322.392303 189.528168 -20.000000 0.000000
321.193909 191.552216 -20.000000 0.000000
317.522644 197.578156 -20.000000 0.000000
315.012238 201.556580 -20.000000 0.000000
307.183716 213.297699 -20.000000 0.000000
304.476379 217.144867 -20.000000 0.000000
301.720947 220.957489 -20.000000 0.000000
298.917816 224.735229 -20.000000 0.000000
297.498474 226.610779 -20.000000 0.000000
291.703857 234.022644 -20.000000 0.000000
282.666901 244.861481 -20.000000 0.000000
274.828156 253.628235 -20.000000 0.000000
273.227448 255.351730 -20.000000 0.000000
271.616211 257.065033 -20.000000 0.000000
268.361328 260.461121 -20.000000 0.000000
266.717773 262.143860 -20.000000 0.000000
263.399139 265.478210 -20.000000 0.000000
249.713837 278.389648 -20.000000 0.000000
247.957886 279.954651 -20.000000 0.000000
239.032822 287.612732 -20.000000 0.000000
235.396088 290.596680 -20.000000 0.000000
233.563721 292.071472 -20.000000 0.000000
231.722168 293.534637 -20.000000 0.000000
220.482849 302.067963 -20.000000 0.000000
218.578674 303.448730 -20.000000 0.000000
210.876251 308.851074 -20.000000 0.000000
208.929611 310.171143 -20.000000 0.000000
206.974670 311.479126 -20.000000 0.000000
203.040298 314.057983 -20.000000 0.000000
184.947128 325.041962 -20.000000 0.000000
180.843994 327.342651 -20.000000 0.000000
174.635666 330.696472 -20.000000 0.000000
170.462173 332.866943 -20.000000 0.000000
168.365250 333.932465 -20.000000 0.000000
159.911713 338.062164 -20.000000 0.000000
157.782288 339.061218 -20.000000 0.000000
153.504883 341.019104 -20.000000 0.000000
142.706696 345.677002 -20.000000 0.000000
140.529785 346.567688 -20.000000 0.000000
127.354378 351.622772 -20.000000 0.000000
118.469093 354.715179 -20.000000 0.000000
113.998009 356.177185 -20.000000 0.000000
111.755493 356.887177 -20.000000 0.000000
107.257851 358.265442 -20.000000 0.000000
105.002159 358.932190 -20.000000 0.000000
102.742630 359.585510 -20.000000 0.000000
79.938339 365.332153 -20.000000 0.000000
77.639015 365.827759 -20.000000 0.000000
75.336441 366.308868 -20.000000 0.000000
73.031219 366.775421 -20.000000 0.000000
70.723038 367.227448 -20.000000 0.000000
59.141552 369.269592 -20.000000 0.000000
56.817863 369.634216 -20.000000 0.000000
49.833813 370.640442 -20.000000 0.000000
47.501698 370.946503 -20.000000 0.000000
42.831821 371.514771 -20.000000 0.000000
33.472763 372.474609 -20.000000 0.000000
28.784983 372.866180 -20.000000 0.000000
17.046938 373.586884 -20.000000 0.000000
14.696939 373.686676 -20.000000 0.000000
12.346409 373.771729 -20.000000 0.000000
2.940253 373.964050 -20.000000 0.000000
0.588006 373.975159 -20.000000 0.000000
-1.764040 373.971436 -20.000000 0.000000
-11.170797 373.808716 -20.000000 0.000000
-13.521728 373.731018 -20.000000 0.000000
-20.570448 373.409485 -20.000000 0.000000
-25.265867 373.121185 -20.000000 0.000000
-29.957270 372.773804 -20.000000 0.000000
-32.301167 372.578033 -20.000000 0.000000
-34.643871 372.367493 -20.000000 0.000000
-43.999847 371.378113 -20.000000 0.000000
-53.328007 370.153870 -20.000000 0.000000
-60.302338 369.081726 -20.000000 0.000000
-64.940208 368.294067 -20.000000 0.000000
-76.488052 366.070129 -20.000000 0.000000
-81.086731 365.079071 -20.000000 0.000000
-87.960403 363.484161 -20.000000 0.000000
-94.802689 361.759888 -20.000000 0.000000
-108.383469 357.925659 -20.000000 0.000000
-110.632622 357.236877 -20.000000 0.000000
-117.352791 355.086060 -20.000000 0.000000
-121.810028 353.581787 -20.000000 0.000000
-124.031448 352.808655 -20.000000 0.000000
-126.248123 352.021484 -20.000000 0.000000
-130.665848 350.405762 -20.000000 0.000000
-137.253830 347.878021 -20.000000 0.000000
-141.618896 346.124023 -20.000000 0.000000
-143.792953 345.226532 -20.000000 0.000000
-145.961197 344.315399 -20.000000 0.000000
-171.507965 332.329285 -20.000000 0.000000
-177.747620 329.034271 -20.000000 0.000000
-179.813507 327.909790 -20.000000 0.000000
-183.923813 325.622162 -20.000000 0.000000
-188.005310 323.282806 -20.000000 0.000000
-205.994141 312.128418 -20.000000 0.000000
-211.846191 308.186493 -20.000000 0.000000
-213.780594 306.847809 -20.000000 0.000000
-217.623199 304.134674 -20.000000 0.000000
-219.531754 302.759949 -20.000000 0.000000
-227.078278 297.141785 -20.000000 0.000000
-228.942505 295.707733 -20.000000 0.000000
-234.481003 291.335541 -20.000000 0.000000
-238.126907 288.363190 -20.000000 0.000000
-239.936096 286.859619 -20.000000 0.000000
-245.305695 282.281494 -20.000000 0.000000
-247.076263 280.733124 -20.000000 0.000000
-252.329575 276.022064 -20.000000 0.000000
-254.059921 274.429047 -20.000000 0.000000
-260.882751 267.951385 -20.000000 0.000000
-262.562805 266.305267 -20.000000 0.000000
-265.891937 262.981384 -20.000000 0.000000
-267.541199 261.304596 -20.000000 0.000000
-270.806274 257.918030 -20.000000 0.000000
-274.029205 254.491211 -20.000000 0.000000
-278.781860 249.275879 -20.000000 0.000000
-280.344208 247.517487 -20.000000 0.000000
-281.895477 245.749191 -20.000000 0.000000
-283.435425 243.971649 -20.000000 0.000000
-284.964447 242.183899 -20.000000 0.000000
-287.988129 238.580353 -20.000000 0.000000
-295.347382 229.407257 -20.000000 0.000000
-296.784332 227.545242 -20.000000 0.000000
-298.209473 225.674316 -20.000000 0.000000
-299.622986 223.794281 -20.000000 0.000000
-306.511292 214.262924 -20.000000 0.000000
-309.182129 210.390533 -20.000000 0.000000
-311.804169 206.484695 -20.000000 0.000000
-315.644440 200.565048 -20.000000 0.000000
-318.142365 196.578796 -20.000000 0.000000
-319.372437 194.573883 -20.000000 0.000000
-324.165955 186.478470 -20.000000 0.000000
-328.754272 178.264969 -20.000000 0.000000
-332.060028 172.030716 -20.000000 0.000000
-334.196747 167.840134 -20.000000 0.000000
-341.259949 152.968719 -20.000000 0.000000
-343.157135 148.663940 -20.000000 0.000000
-344.999969 144.335739 -20.000000 0.000000
-347.662537 137.801132 -20.000000 0.000000
-352.613129 124.586411 -20.000000 0.000000
-354.152374 120.141014 -20.000000 0.000000
-355.635559 115.676842 -20.000000 0.000000
-356.356049 113.437775 -20.000000 0.000000
-357.754700 108.946426 -20.000000 0.000000
-361.610382 95.371536 -20.000000 0.000000
-362.781372 90.815353 -20.000000 0.000000
-363.345367 88.531906 -20.000000 0.000000
-367.772064 67.833977 -20.000000 0.000000
-368.596283 63.202377 -20.000000 0.000000
-369.723175 56.236687 -20.000000 0.000000
-370.718414 49.250961 -20.000000 0.000000
-371.309387 44.584141 -20.000000 0.000000
-372.312531 35.229561 -20.000000 0.000000
-372.726288 30.543602 -20.000000 0.000000
-373.237000 23.505629 -20.000000 0.000000
-373.503174 18.809208 -20.000000 0.000000
-373.613281 16.459436 -20.000000 0.000000
-373.790771 11.758814 -20.000000 0.000000
-373.946075 4.704197 -20.000000 0.000000
-266.882080 0.000115 -20.000000 0.000022
-266.750092 -8.391346 -20.000000 0.000022
-266.691620 -10.068912 -20.000000 0.000022
-266.454590 -15.098989 -20.000000 0.000022
-266.354370 -16.774355 -20.000000 0.000022
-265.173645 -30.149261 -20.000000 0.000022
-264.557129 -35.147156 -20.000000 0.000022
-264.330841 -36.810375 -20.000000 0.000022
-264.094574 -38.472073 -20.000000 0.000022
-263.321655 -43.448170 -20.000000 0.000022
-262.455017 -48.408607 -20.000000 0.000022
-261.824921 -51.706028 -20.000000 0.000022
-261.494934 -53.351685 -20.000000 0.000022
-261.154205 -54.995354 -20.000000 0.000022
-260.070160 -59.912910 -20.000000 0.000022
-258.057312 -68.060364 -20.000000 0.000022
-257.181244 -71.300980 -20.000000 0.000022
-256.727753 -72.917183 -20.000000 0.000022
-255.305878 -77.747757 -20.000000 0.000022
-254.812256 -79.352066 -20.000000 0.000022
-254.308136 -80.953117 -20.000000 0.000022
-249.320511 -95.210686 -20.000000 0.000022
-248.717087 -96.777161 -20.000000 0.000022
-245.551300 -104.549355 -20.000000 0.000022
-242.142670 -112.218384 -20.000000 0.000022
-240.711563 -115.255135 -20.000000 0.000022
-239.982254 -116.767090 -20.000000 0.000022
-236.969055 -122.766838 -20.000000 0.000022
-236.192200 -124.254868 -20.000000 0.000022
-235.405640 -125.737732 -20.000000 0.000022
-234.610138 -127.215866 -20.000000 0.000022
-232.168518 -131.619873 -20.000000 0.000022
-223.436707 -145.952316 -20.000000 0.000022
-219.694244 -151.526337 -20.000000 0.000022
-209.735962 -165.035172 -20.000000 0.000022
-204.443176 -171.548157 -20.000000 0.000022
-202.269409 -174.106552 -20.000000 0.000022
-194.410324 -182.839874 -20.000000 0.000022
-192.095520 -185.271011 -20.000000 0.000022
-190.926376 -186.475555 -20.000000 0.000022
-189.749481 -187.672379 -20.000000 0.000022
-176.322266 -200.340927 -20.000000 0.000022
-173.788040 -202.542633 -20.000000 0.000022
-168.638153 -206.850739 -20.000000 0.000022
-163.381393 -211.027405 -20.000000 0.000022
-160.714081 -213.065765 -20.000000 0.000022
-151.180725 -219.932236 -20.000000 0.000022
-141.354752 -226.373337 -20.000000 0.000022
-138.495956 -228.133011 -20.000000 0.000022
-137.058624 -228.999939 -20.000000 0.000022
-135.615356 -229.857117 -20.000000 0.000022
-129.790512 -233.196167 -20.000000 0.000022
-128.321228 -234.007919 -20.000000 0.000022
-123.883347 -236.387329 -20.000000 0.000022
-122.394073 -237.161804 -20.000000 0.000022
-114.876656 -240.892883 -20.000000 0.000022
-97.949036 -248.257523 -20.000000 0.000022
-96.385757 -248.869080 -20.000000 0.000022
-93.247772 -250.061798 -20.000000 0.000022
-91.673225 -250.643250 -20.000000 0.000022
-88.513092 -251.776154 -20.000000 0.000022
-86.927917 -252.328278 -20.000000 0.000022
-77.346291 -255.428314 -20.000000 0.000022
-74.127281 -256.380951 -20.000000 0.000022
-72.513214 -256.841644 -20.000000 0.000022
-69.276901 -257.733917 -20.000000 0.000022
-66.029434 -258.584961 -20.000000 0.000022
-61.138885 -259.784668 -20.000000 0.000022
-57.866352 -260.533234 -20.000000 0.000022
-56.226505 -260.891510 -20.000000 0.000022
-39.717457 -263.910156 -20.000000 0.000022
-36.394630 -264.388428 -20.000000 0.000022
-33.066189 -264.825745 -20.000000 0.000022
-31.399895 -265.028473 -20.000000 0.000022
0.419622 -266.881714 -20.000000 0.000022
5.454914 -266.825836 -20.000000 0.000022
12.165221 -266.604248 -20.000000 0.000022
15.517822 -266.430573 -20.000000 0.000022
23.887327 -265.810852 -20.000000 0.000022
25.558676 -265.655396 -20.000000 0.000022
30.566233 -265.125458 -20.000000 0.000022
38.887348 -264.033691 -20.000000 0.000022
45.516773 -262.971497 -20.000000 0.000022
52.117611 -261.743744 -20.000000 0.000022
63.586918 -259.195862 -20.000000 0.000022
65.215965 -258.791229 -20.000000 0.000022
70.087021 -257.514679 -20.000000 0.000022
71.705177 -257.068420 -20.000000 0.000022
81.352928 -254.180527 -20.000000 0.000022
82.949852 -253.663818 -20.000000 0.000022
84.543663 -253.137115 -20.000000 0.000022
90.884575 -250.930328 -20.000000 0.000022
92.461006 -250.353699 -20.000000 0.000022
94.033607 -249.766815 -20.000000 0.000022
97.167938 -248.564728 -20.000000 0.000022
106.476578 -244.721786 -20.000000 0.000022
108.013680 -244.047287 -20.000000 0.000022
109.546501 -243.363129 -20.000000 0.000022
111.074692 -242.668915 -20.000000 0.000022
115.633675 -240.530396 -20.000000 0.000022
117.144150 -239.798386 -20.000000 0.000022
121.647682 -237.545532 -20.000000 0.000022
124.626038 -235.996521 -20.000000 0.000022
126.107895 -235.208054 -20.000000 0.000022
129.056290 -233.602844 -20.000000 0.000022
133.441040 -231.126617 -20.000000 0.000022
144.896622 -224.122726 -20.000000 0.000022
147.704300 -222.282425 -20.000000 0.000022
150.488647 -220.406830 -20.000000 0.000022
158.696686 -214.572083 -20.000000 0.000022
164.044235 -210.512512 -20.000000 0.000022
165.364746 -209.476257 -20.000000 0.000022
169.287842 -206.319336 -20.000000 0.000022
170.581833 -205.250168 -20.000000 0.000022
171.869705 -204.173553 -20.000000 0.000022
173.150497 -203.088531 -20.000000 0.000022
183.145538 -194.122955 -20.000000 0.000022
186.775467 -190.632996 -20.000000 0.000022
187.970779 -189.454544 -20.000000 0.000022
189.158447 -188.268158 -20.000000 0.000022
190.338806 -187.074692 -20.000000 0.000022
194.984344 -182.227600 -20.000000 0.000022
196.126923 -180.997925 -20.000000 0.000022
197.261414 -179.760880 -20.000000 0.000022
210.254303 -164.375031 -20.000000 0.000022
214.322632 -159.034103 -20.000000 0.000022
221.114304 -149.447311 -20.000000 0.000022
222.049515 -148.053421 -20.000000 0.000022
222.976318 -146.653900 -20.000000 0.000022
223.894623 -145.248840 -20.000000 0.000022
224.803680 -143.837830 -20.000000 0.000022
225.703873 -142.421112 -20.000000 0.000022
226.594879 -140.998520 -20.000000 0.000022
217.067169 -127.609665 -18.869665 0.000041
209.982269 -121.673965 -18.186869 0.000059
203.392456 -116.153015 -17.552473 0.000083
186.115967 -101.678802 -15.893133 0.000202
181.060242 -97.443123 -15.408777 0.000262
180.154877 -95.499542 -15.280321 0.000280
181.843689 -93.483856 -15.322573 0.000274
182.691681 -92.471710 -15.344725 0.000271
184.395203 -90.438492 -15.391047 0.000264
186.970505 -87.364716 -15.465624 0.000254
194.861633 -77.946152 -15.727800 0.000221
195.755630 -76.879112 -15.760580 0.000217
204.919235 -65.941742 -16.132036 0.000178
206.806122 -63.689606 -16.216249 0.000170
214.564301 -54.429634 -16.588644 0.000139
217.569366 -50.842876 -16.743799 0.000128
218.583694 -49.632191 -16.797510 0.000125
220.632233 -47.187099 -16.907991 0.000117
221.666763 -45.952312 -16.964796 0.000114
177.329117 -34.440453 -13.537247 0.000713
173.578171 -31.451553 -13.219696 0.000845
172.567230 -30.148632 -13.127964 0.000888
169.281784 -23.031525 -12.802818 0.001056
167.881958 -16.418346 -12.641033 0.001152
167.618637 -14.266468 -12.606701 0.001173
167.515121 -12.137390 -12.586433 0.001186
167.463470 -11.075310 -12.577087 0.001192
167.567093 -6.854238 -12.567921 0.001198
167.869720 -3.695936 -12.583141 0.001188
168.030121 -2.642291 -12.593697 0.001182
169.194031 2.660563 -12.680931 0.001128
169.900330 4.809895 -12.737373 0.001094
170.346222 5.894990 -12.773346 0.001073
170.794662 6.986272 -12.809990 0.001052
171.327515 8.087701 -12.853519 0.001028
173.623489 11.482718 -13.039726 0.000931
265.920593 22.633183 -20.000000 0.000022
265.445831 27.646301 -20.000000 0.000022
265.266724 29.315250 -20.000000 0.000022
265.077087 30.983055 -20.000000 0.000022
264.877380 32.649666 -20.000000 0.000022
264.666351 34.314941 -20.000000 0.000022
264.445740 35.978897 -20.000000 0.000022
264.214233 37.641426 -20.000000 0.000022
263.456604 42.619652 -20.000000 0.000022
263.183716 44.275879 -20.000000 0.000022
260.979980 55.816265 -20.000000 0.000022
260.623749 57.456627 -20.000000 0.000022
259.880463 60.730339 -20.000000 0.000022
259.095978 63.994461 -20.000000 0.000022
258.270142 67.248329 -20.000000 0.000022
257.404205 70.491837 -20.000000 0.000022
256.496765 73.723907 -20.000000 0.000022
253.003860 84.941498 -20.000000 0.000022
251.356216 89.699890 -20.000000 0.000022
250.787064 91.278984 -20.000000 0.000022
249.020294 95.994415 -20.000000 0.000022
248.411621 97.558693 -20.000000 0.000022
245.220947 105.320831 -20.000000 0.000022
244.553711 106.861115 -20.000000 0.000022
242.494400 111.456276 -20.000000 0.000022
239.613525 117.520874 -20.000000 0.000022
237.353577 122.020805 -20.000000 0.000022
233.399612 129.423447 -20.000000 0.000022
230.070419 135.253937 -20.000000 0.000022
228.350830 138.137283 -20.000000 0.000022
224.803680 143.837784 -20.000000 0.000022
223.894608 145.248840 -20.000000 0.000022
219.216644 152.216476 -20.000000 0.000022
215.318619 157.682968 -20.000000 0.000022
214.322311 159.033752 -20.000000 0.000022
212.305252 161.717300 -20.000000 0.000022
210.254303 164.375031 -20.000000 0.000022
208.169754 167.006454 -20.000000 0.000022
204.982040 170.904617 -20.000000 0.000022
200.617966 176.007034 -20.000000 0.000022
193.834457 183.450226 -20.000000 0.000022
192.676865 184.665741 -20.000000 0.000022
190.338791 187.074692 -20.000000 0.000022
187.970535 189.454224 -20.000000 0.000022
181.920792 195.270691 -20.000000 0.000022
178.204147 198.668228 -20.000000 0.000022
176.951447 199.785431 -20.000000 0.000022
169.287827 206.319305 -20.000000 0.000022
167.986908 207.379883 -20.000000 0.000022
158.696915 214.572327 -20.000000 0.000022
157.344223 215.566238 -20.000000 0.000022
150.488647 220.406860 -20.000000 0.000022
136.337601 229.429474 -20.000000 0.000022
114.118568 241.252884 -20.000000 0.000022
111.074783 242.668900 -20.000000 0.000022
109.546516 243.363129 -20.000000 0.000022
100.286949 247.322769 -20.000000 0.000022
87.721085 252.053635 -20.000000 0.000022
82.949860 253.663849 -20.000000 0.000022
79.752670 254.687134 -20.000000 0.000022
76.542755 255.670166 -20.000000 0.000022
66.842209 258.375519 -20.000000 0.000022
63.586884 259.195862 -20.000000 0.000022
61.955650 259.591095 -20.000000 0.000022
43.862099 263.253021 -20.000000 0.000022
42.205444 263.523651 -20.000000 0.000022
35.563103 264.501953 -20.000000 0.000022
30.566217 265.125488 -20.000000 0.000022
27.228966 265.488953 -20.000000 0.000022
22.215034 265.955902 -20.000000 0.000022
15.517815 266.430115 -20.000000 0.000022
13.841946 266.522827 -20.000000 0.000022
5.454913 266.825867 -20.000000 0.000022
3.776684 266.854889 -20.000000 0.000022
-1.258881 266.879089 -20.000000 0.000022
-2.937255 266.865875 -20.000000 0.000022
-14.679763 266.477631 -20.000000 0.000022
-21.378559 266.024445 -20.000000 0.000022
-24.723009 265.734436 -20.000000 0.000022
-43.033829 263.389709 -20.000000 0.000022
-46.343620 262.827515 -20.000000 0.000022
-54.584503 261.240448 -20.000000 0.000022
-57.866322 260.533173 -20.000000 0.000022
-67.654510 258.164459 -20.000000 0.000022
-70.896416 257.293121 -20.000000 0.000022
-72.513260 256.842102 -20.000000 0.000022
-80.553154 254.435150 -20.000000 0.000022
-86.927902 252.328278 -20.000000 0.000022
-93.247665 250.061829 -20.000000 0.000022
-102.615501 246.365295 -20.000000 0.000022
-105.706383 245.054993 -20.000000 0.000022
-108.780334 243.706085 -20.000000 0.000022
-122.394066 237.161774 -20.000000 0.000022
-125.367371 235.603119 -20.000000 0.000022
-129.790451 233.196152 -20.000000 0.000022
-134.167114 230.705856 -20.000000 0.000022
-135.615295 229.857117 -20.000000 0.000022
-139.928253 227.257782 -20.000000 0.000022
-147.004364 222.745392 -20.000000 0.000022
-155.303497 217.041077 -20.000000 0.000022
-156.665527 216.060028 -20.000000 0.000022
-158.021027 215.070114 -20.000000 0.000022
-160.714081 213.065750 -20.000000 0.000022
-162.050980 212.050766 -20.000000 0.000022
-166.022858 208.955566 -20.000000 0.000022
-168.637787 206.850403 -20.000000 0.000022
-172.510818 203.632080 -20.000000 0.000022
-175.058716 201.445923 -20.000000 0.000022
-176.322250 200.340897 -20.000000 0.000022
-178.828232 198.107315 -20.000000 0.000022
-180.070786 196.978531 -20.000000 0.000022
-194.410538 182.840286 -20.000000 0.000022
-197.825470 179.139297 -20.000000 0.000022
-200.063416 176.637085 -20.000000 0.000022
-201.170502 175.375214 -20.000000 0.000022
-206.585205 168.963257 -20.000000 0.000022
-207.643829 167.660645 -20.000000 0.000022
-209.736237 165.035553 -20.000000 0.000022
-212.812729 161.049011 -20.000000 0.000022
-217.771210 154.278107 -20.000000 0.000022
-218.737167 152.905487 -20.000000 0.000022
-222.514359 147.354675 -20.000000 0.000022
-227.037445 140.285477 -20.000000 0.000022
-228.784119 137.418579 -20.000000 0.000022
-230.494629 134.529770 -20.000000 0.000022
-231.336105 133.077530 -20.000000 0.000022
-232.168152 131.619781 -20.000000 0.000022
-234.610168 127.215874 -20.000000 0.000022
-236.192245 124.254860 -20.000000 0.000022
-241.432083 113.739105 -20.000000 0.000022
-242.142670 112.218399 -20.000000 0.000022
-244.888885 106.091728 -20.000000 0.000022
-248.103607 98.339409 -20.000000 0.000022
-248.717102 96.777153 -20.000000 0.000022
-249.914383 93.640877 -20.000000 0.000022
-252.191254 87.324600 -20.000000 0.000022
-252.735474 85.736839 -20.000000 0.000022
-254.308151 80.953133 -20.000000 0.000022
-254.812256 79.352104 -20.000000 0.000022
-257.181183 71.301117 -20.000000 0.000022
-258.057373 68.060402 -20.000000 0.000022
-259.295532 63.179375 -20.000000 0.000022
-261.154236 54.995495 -20.000000 0.000022
-261.824951 51.706051 -20.000000 0.000022
-263.589783 41.790985 -20.000000 0.000022
-264.094543 38.472275 -20.000000 0.000022
-264.557190 35.147198 -20.000000 0.000022
-264.978760 31.816715 -20.000000 0.000022
-266.454590 15.099002 -20.000000 0.000022
-266.544312 13.422875 -20.000000 0.000022
-266.860992 3.357038 -20.000000 0.000022
-207.304657 -2.607846 -20.000000 0.000241
-207.120178 -9.124617 -20.000000 0.000241
-206.730865 -15.632463 -20.000000 0.000241
-206.628448 -16.932426 -20.000000 0.000241
-206.399170 -19.530132 -20.000000 0.000241
-205.842499 -24.715990 -20.000000 0.000241
-205.683014 -26.010126 -20.000000 0.000241
-205.339554 -28.595284 -20.000000 0.000241
-204.555237 -33.751671 -20.000000 0.000241
-203.136215 -41.444992 -20.000000 0.000241
-202.598831 -43.996994 -20.000000 0.000241
-202.318115 -45.270252 -20.000000 0.000241
-202.029388 -46.541950 -20.000000 0.000241
-200.794708 -51.609207 -20.000000 0.000241
-200.129608 -54.130905 -20.000000 0.000241
-198.704666 -59.147930 -20.000000 0.000241
-197.553284 -62.886513 -20.000000 0.000241
-196.331635 -66.602654 -20.000000 0.000241
-195.908875 -67.836044 -20.000000 0.000241
-195.040085 -70.295074 -20.000000 0.000241
-193.679108 -73.962318 -20.000000 0.000241
-191.757263 -78.810974 -20.000000 0.000241
-190.750732 -81.216805 -20.000000 0.000241
-189.714111 -83.609688 -20.000000 0.000241
-189.184464 -84.801270 -20.000000 0.000241
-188.647400 -85.989449 -20.000000 0.000241
-188.102844 -87.174194 -20.000000 0.000241
-185.850418 -91.878464 -20.000000 0.000241
-184.083847 -95.368568 -20.000000 0.000241
-183.480377 -96.524506 -20.000000 0.000241
-182.251663 -98.824814 -20.000000 0.000241
-180.994217 -101.109444 -20.000000 0.000241
-179.708038 -103.378151 -20.000000 0.000241
-175.679871 -110.084518 -20.000000 0.000241
-174.983978 -111.187332 -20.000000 0.000241
-173.571533 -113.379608 -20.000000 0.000241
-171.401489 -116.634270 -20.000000 0.000241
-169.170456 -119.847298 -20.000000 0.000241
-165.318588 -125.107132 -20.000000 0.000241
-162.928741 -128.203903 -20.000000 0.000241
-162.119232 -129.226089 -20.000000 0.000241
-160.480881 -131.255112 -20.000000 0.000241
-154.548477 -138.191147 -20.000000 0.000241
-153.676254 -139.160461 -20.000000 0.000241
-149.224869 -143.923431 -20.000000 0.000241
-147.402679 -145.789108 -20.000000 0.000241
-146.482758 -146.713394 -20.000000 0.000241
-145.557114 -147.631790 -20.000000 0.000241
-142.745819 -150.351746 -20.000000 0.000241
-136.971817 -155.630142 -20.000000 0.000241
-133.013474 -159.026505 -20.000000 0.000241
-132.010574 -159.860001 -20.000000 0.000241
-131.002548 -160.687119 -20.000000 0.000241
-126.918930 -163.931671 -20.000000 0.000241
-125.885452 -164.726624 -20.000000 0.000241
-124.846962 -165.515137 -20.000000 0.000241
-121.701935 -167.841171 -20.000000 0.000241
-120.643898 -168.603271 -20.000000 0.000241
-117.441399 -170.849487 -20.000000 0.000241
-109.808083 -175.852783 -20.000000 0.000241
-105.349739 -178.559357 -20.000000 0.000241
-100.824692 -181.152954 -20.000000 0.000241
-90.414444 -186.567047 -20.000000 0.000241
-89.239182 -187.131989 -20.000000 0.000241
-86.878311 -188.239685 -20.000000 0.000241
-85.692657 -188.782379 -20.000000 0.000241
-82.115616 -190.365540 -20.000000 0.000241
-79.714577 -191.383392 -20.000000 0.000241
-77.300926 -192.370972 -20.000000 0.000241
-72.437378 -194.254578 -20.000000 0.000241
-71.214180 -194.706329 -20.000000 0.000241
-69.988167 -195.150406 -20.000000 0.000241
-63.817646 -197.254456 -20.000000 0.000241
-58.835480 -198.797379 -20.000000 0.000241
-56.330250 -199.521744 -20.000000 0.000241
-52.555801 -200.549011 -20.000000 0.000241
-41.125557 -203.201157 -20.000000 0.000241
-34.716064 -204.393799 -20.000000 0.000241
-32.142376 -204.814270 -20.000000 0.000241
-30.853569 -205.012390 -20.000000 0.000241
-23.096869 -206.030518 -20.000000 0.000241
-21.800583 -206.171677 -20.000000 0.000241
-17.906813 -206.546280 -20.000000 0.000241
-14.006689 -206.847336 -20.000000 0.000241
-2.281738 -207.308502 -20.000000 0.000241
4.237552 -207.277740 -20.000000 0.000241
5.541087 -207.247025 -20.000000 0.000241
14.657128 -206.802277 -20.000000 0.000241
28.918070 -205.294327 -20.000000 0.000241
31.498148 -204.914352 -20.000000 0.000241
34.073246 -204.501938 -20.000000 0.000241
37.925549 -203.822662 -20.000000 0.000241
41.764420 -203.070831 -20.000000 0.000241
43.040764 -202.804138 -20.000000 0.000241
44.315453 -202.529434 -20.000000 0.000241
48.128750 -201.657272 -20.000000 0.000241
54.445446 -200.044266 -20.000000 0.000241
63.197098 -197.454132 -20.000000 0.000241
70.601562 -194.929321 -20.000000 0.000241
71.826172 -194.481400 -20.000000 0.000241
76.695618 -192.613083 -20.000000 0.000241
82.713867 -190.106339 -20.000000 0.000241
85.098625 -189.050919 -20.000000 0.000241
89.827301 -186.850403 -20.000000 0.000241
91.000732 -186.281723 -20.000000 0.000241
96.812874 -183.328369 -20.000000 0.000241
100.254532 -181.469116 -20.000000 0.000241
102.529282 -180.193680 -20.000000 0.000241
107.029633 -177.557526 -20.000000 0.000241
109.254616 -176.197189 -20.000000 0.000241
111.462341 -174.808929 -20.000000 0.000241
120.113174 -168.981812 -20.000000 0.000241
121.173576 -168.223022 -20.000000 0.000241
122.229172 -167.457626 -20.000000 0.000241
123.279953 -166.685547 -20.000000 0.000241
124.325897 -165.906860 -20.000000 0.000241
125.366867 -165.121674 -20.000000 0.000241
129.480881 -161.915802 -20.000000 0.000241
131.507309 -160.274292 -20.000000 0.000241
136.481781 -156.060089 -20.000000 0.000241
141.321152 -151.691635 -20.000000 0.000241
146.020660 -147.173279 -20.000000 0.000241
149.676758 -143.453461 -20.000000 0.000241
151.469269 -141.559448 -20.000000 0.000241
152.356628 -140.603989 -20.000000 0.000241
155.845352 -136.726898 -20.000000 0.000241
157.552872 -134.755768 -20.000000 0.000241
160.067352 -131.759125 -20.000000 0.000241
161.712051 -129.735275 -20.000000 0.000241
162.524765 -128.715637 -20.000000 0.000241
163.331131 -127.690903 -20.000000 0.000241
165.711243 -124.586548 -20.000000 0.000241
169.546524 -119.314690 -20.000000 0.000241
172.494217 -115.011978 -20.000000 0.000241
177.389008 -107.308693 -20.000000 0.000241
179.382080 -103.942719 -20.000000 0.000241
180.675323 -101.678146 -20.000000 0.000241
180.996033 -94.491943 -19.696707 0.000273
187.832367 -86.332344 -19.942270 0.000247
189.450256 -84.205872 -20.000000 0.000241
191.508499 -79.413551 -20.000000 0.000241
192.004166 -78.207535 -20.000000 0.000241
194.818069 -70.907959 -20.000000 0.000241
195.260162 -69.681320 -20.000000 0.000241
195.694580 -68.451843 -20.000000 0.000241
196.951263 -64.747421 -20.000000 0.000241
199.610046 -56.016487 -20.000000 0.000241
200.631409 -52.240467 -20.000000 0.000241
201.272629 -49.712624 -20.000000 0.000241
202.736176 -43.359661 -20.000000 0.000241
203.004898 -42.083683 -20.000000 0.000241
203.265549 -40.806061 -20.000000 0.000241
173.563843 -31.448959 -17.016155 0.000835
171.048187 -27.670704 -16.715359 0.000946
170.087296 -25.324093 -16.589008 0.000997
169.612213 -24.163912 -16.527519 0.001023
168.376968 -19.680481 -16.353725 0.001100
168.197922 -18.587978 -16.324650 0.001113
168.033783 -17.500839 -16.297714 0.001126
167.606964 -14.265474 -16.227322 0.001160
167.503464 -12.136546 -16.201237 0.001172
167.451843 -11.074538 -16.189186 0.001178
167.502991 -7.907192 -16.176830 0.001184
167.555496 -6.853763 -16.177414 0.001184
167.697952 -4.747576 -16.184116 0.001181
168.179153 -1.586685 -16.224785 0.001161
168.896484 1.593467 -16.293987 0.001128
169.468964 3.731159 -16.352444 0.001101
169.888306 4.809555 -16.395508 0.001081
170.782501 6.985774 -16.488976 0.001040
171.996124 9.203795 -16.616016 0.000986
172.683014 10.330106 -16.688324 0.000957
174.712280 12.658830 -16.898483 0.000877
176.444901 13.900483 -17.074184 0.000815
205.919235 24.068478 -20.000000 0.000241
205.763794 25.363134 -20.000000 0.000241
205.428482 27.949348 -20.000000 0.000241
205.248627 29.240891 -20.000000 0.000241
202.736206 43.359543 -20.000000 0.000241
202.174774 45.906284 -20.000000 0.000241
201.882034 47.176949 -20.000000 0.000241
201.272675 49.712605 -20.000000 0.000241
200.956024 50.977547 -20.000000 0.000241
199.253830 57.270771 -20.000000 0.000241
198.889664 58.522884 -20.000000 0.000241
198.517639 59.772598 -20.000000 0.000241
197.750076 62.264935 -20.000000 0.000241
196.951263 64.747406 -20.000000 0.000241
196.121246 67.219658 -20.000000 0.000241
195.694595 68.451820 -20.000000 0.000241
194.368271 72.131821 -20.000000 0.000241
193.910767 73.352859 -20.000000 0.000241
192.972717 75.786171 -20.000000 0.000241
192.492279 76.998375 -20.000000 0.000241
192.004181 78.207466 -20.000000 0.000241
187.272095 88.944870 -20.000000 0.000241
186.708954 90.120934 -20.000000 0.000241
186.138443 91.293449 -20.000000 0.000241
183.783051 95.946953 -20.000000 0.000241
181.940033 99.397415 -20.000000 0.000241
180.675354 101.678108 -20.000000 0.000241
179.382111 103.942734 -20.000000 0.000241
178.060455 106.190872 -20.000000 0.000241
177.389008 107.308685 -20.000000 0.000241
173.927292 112.833176 -20.000000 0.000241
171.033920 117.172585 -20.000000 0.000241
170.293610 118.245949 -20.000000 0.000241
168.032318 121.437881 -20.000000 0.000241
165.711243 124.586548 -20.000000 0.000241
161.712036 129.735260 -20.000000 0.000241
155.845337 136.726898 -20.000000 0.000241
153.237961 139.642975 -20.000000 0.000241
150.576019 142.509247 -20.000000 0.000241
148.771606 144.391953 -20.000000 0.000241
146.943512 146.251923 -20.000000 0.000241
145.092163 148.088776 -20.000000 0.000241
143.217987 149.902084 -20.000000 0.000241
138.433960 154.331009 -20.000000 0.000241
134.507889 157.764542 -20.000000 0.000241
131.507309 160.274323 -20.000000 0.000241
129.480865 161.915802 -20.000000 0.000241
121.173584 168.223053 -20.000000 0.000241
117.978142 170.479279 -20.000000 0.000241
112.559555 174.104477 -20.000000 0.000241
110.360703 175.506531 -20.000000 0.000241
107.029640 177.557526 -20.000000 0.000241
102.529282 180.193695 -20.000000 0.000241
101.393936 180.834991 -20.000000 0.000241
99.111229 182.096085 -20.000000 0.000241
96.812904 183.328369 -20.000000 0.000241
92.170547 185.705719 -20.000000 0.000241
86.285973 188.511932 -20.000000 0.000241
85.098625 189.050903 -20.000000 0.000241
81.516563 190.622849 -20.000000 0.000241
76.695618 192.613098 -20.000000 0.000241
60.708462 198.233475 -20.000000 0.000241
51.924919 200.713272 -20.000000 0.000241
50.661530 201.035919 -20.000000 0.000241
37.925591 203.822662 -20.000000 0.000241
35.358753 204.283600 -20.000000 0.000241
34.073311 204.501907 -20.000000 0.000241
30.208796 205.108383 -20.000000 0.000241
25.039633 205.803391 -20.000000 0.000241
23.744713 205.956833 -20.000000 0.000241
18.556313 206.488937 -20.000000 0.000241
17.257278 206.601593 -20.000000 0.000241
6.844485 207.208054 -20.000000 0.000241
5.541050 207.246994 -20.000000 0.000241
1.629990 207.314667 -20.000000 0.000241
-7.496048 207.185486 -20.000000 0.000241
-8.798903 207.134277 -20.000000 0.000241
-12.705428 206.931412 -20.000000 0.000241
-21.800587 206.171661 -20.000000 0.000241
-23.096840 206.030472 -20.000000 0.000241
-24.392221 205.881119 -20.000000 0.000241
-25.686672 205.723633 -20.000000 0.000241
-28.272285 205.384247 -20.000000 0.000241
-32.142361 204.814301 -20.000000 0.000241
-34.716110 204.393753 -20.000000 0.000241
-38.566208 203.702423 -20.000000 0.000241
-39.846680 203.455795 -20.000000 0.000241
-41.125496 203.201187 -20.000000 0.000241
-47.494221 201.807663 -20.000000 0.000241
-48.762619 201.504898 -20.000000 0.000241
-52.555786 200.549026 -20.000000 0.000241
-55.074215 199.872101 -20.000000 0.000241
-56.330147 199.521744 -20.000000 0.000241
-60.084541 198.423477 -20.000000 0.000241
-61.331455 198.041580 -20.000000 0.000241
-65.056946 196.849213 -20.000000 0.000241
-69.988182 195.150375 -20.000000 0.000241
-76.089424 192.853363 -20.000000 0.000241
-78.509315 191.880981 -20.000000 0.000241
-80.916588 190.878326 -20.000000 0.000241
-82.115608 190.365585 -20.000000 0.000241
-91.585945 185.994751 -20.000000 0.000241
-92.753983 185.414993 -20.000000 0.000241
-93.918213 184.828003 -20.000000 0.000241
-95.078957 184.233582 -20.000000 0.000241
-103.095329 179.870453 -20.000000 0.000241
-104.224518 179.218521 -20.000000 0.000241
-108.699982 176.539917 -20.000000 0.000241
-109.808014 175.852875 -20.000000 0.000241
-115.283005 172.313263 -20.000000 0.000241
-117.441238 170.849548 -20.000000 0.000241
-118.513641 170.107407 -20.000000 0.000241
-119.581047 169.358765 -20.000000 0.000241
-120.643875 168.603302 -20.000000 0.000241
-123.803452 166.297119 -20.000000 0.000241
-131.002533 160.687149 -20.000000 0.000241
-133.013474 159.026520 -20.000000 0.000241
-135.990250 156.488571 -20.000000 0.000241
-140.843323 152.135422 -20.000000 0.000241
-143.688553 149.451050 -20.000000 0.000241
-144.625702 148.544373 -20.000000 0.000241
-145.557068 147.631836 -20.000000 0.000241
-148.316620 144.859253 -20.000000 0.000241
-151.023285 142.035156 -20.000000 0.000241
-154.548462 138.191193 -20.000000 0.000241
-162.928680 128.203995 -20.000000 0.000241
-163.731873 127.176620 -20.000000 0.000241
-164.528458 126.144409 -20.000000 0.000241
-165.318527 125.107170 -20.000000 0.000241
-166.102051 124.064987 -20.000000 0.000241
-166.879105 123.017815 -20.000000 0.000241
-168.413330 120.908951 -20.000000 0.000241
-169.170441 119.847336 -20.000000 0.000241
-170.664581 117.709930 -20.000000 0.000241
-172.131744 115.553856 -20.000000 0.000241
-173.571503 113.379692 -20.000000 0.000241
-177.725555 106.750404 -20.000000 0.000241
-179.708023 103.378174 -20.000000 0.000241
-180.354645 102.245926 -20.000000 0.000241
-182.869629 97.676613 -20.000000 0.000241
-185.850388 91.878441 -20.000000 0.000241
-189.714111 83.609703 -20.000000 0.000241
-190.236145 82.414902 -20.000000 0.000241
-190.750717 81.216904 -20.000000 0.000241
-193.210052 75.179123 -20.000000 0.000241
-194.140427 72.742859 -20.000000 0.000241
-194.594131 71.520233 -20.000000 0.000241
-195.478317 69.067024 -20.000000 0.000241
-195.908859 67.836082 -20.000000 0.000241
-198.328690 60.396675 -20.000000 0.000241
-198.704666 59.147961 -20.000000 0.000241
-200.466080 52.871204 -20.000000 0.000241
-202.598831 43.997021 -20.000000 0.000241
-202.871506 42.722019 -20.000000 0.000241
-203.882004 37.605167 -20.000000 0.000241
-204.114517 36.321899 -20.000000 0.000241
-205.155640 29.886267 -20.000000 0.000241
-205.842484 24.716106 -20.000000 0.000241
-206.137115 22.124891 -20.000000 0.000241
-206.272186 20.827982 -20.000000 0.000241
-206.399124 19.530293 -20.000000 0.000241
-206.628448 16.932491 -20.000000 0.000241
-206.730850 15.632524 -20.000000 0.000241
-207.058655 10.427229 -20.000000 0.000241
-169.363342 -1.065267 -20.000000 0.001090
