ply
format ascii 1.0
element vertex 963
property float32 x
property float32 y
property float32 z
property float32 CosAngle
property uint32 ObjIdx
property uint32 ObjTag
end_header
21.658455 259.291779 71.211075 0.399915 93563 2
19.993219 258.981476 71.089912 0.409859 93563 2
18.368032 259.161346 71.106163 0.409765 93563 2
16.742550 259.346375 71.126633 0.409647 93563 2
15.116316 259.536652 71.151329 0.409505 93563 2
13.496916 259.879425 71.220612 0.392021 93563 2
11.890538 260.583466 71.391655 0.391082 93563 2
10.276698 261.296234 71.567795 0.390119 93563 2
8.654943 262.018005 71.749176 0.389133 93563 2
7.039493 263.292206 72.084534 0.345074 93563 2
5.410734 264.664703 72.449554 0.343336 93563 2
3.766644 266.143219 72.846382 0.276164 93563 2
2.111155 268.510132 73.489136 0.273748 93563 2
0.429829 273.534332 74.861847 0.057526 93563 2
192.489136 -256.867493 80.517097 0.837168 110121 4
193.481262 -254.835770 80.260078 0.839849 110121 4
194.467422 -252.817154 80.007980 0.842495 110121 4
195.447617 -250.811493 79.760666 0.845107 110121 4
196.422119 -248.818314 79.518143 0.847685 110121 4
197.390961 -246.837479 79.280304 0.850228 110121 4
198.354324 -244.868652 79.047058 0.852737 110121 4
199.312302 -242.911606 78.818436 0.855211 110121 4
200.265060 -240.966064 78.594299 0.857649 110121 4
201.212677 -239.031799 78.374634 0.860053 110121 4
202.155350 -237.108383 78.159348 0.862422 110121 4
203.093094 -235.195847 77.948441 0.864756 110121 4
204.026077 -233.293762 77.741798 0.867054 110121 4
204.954376 -231.402008 77.539436 0.869317 110121 4
205.878174 -229.520218 77.341248 0.871545 110121 4
206.797501 -227.648300 77.147217 0.873737 110121 4
207.712555 -225.785889 76.957291 0.875893 110121 4
208.623398 -223.932785 76.771393 0.878014 110121 4
209.530090 -222.088913 76.589508 0.880099 110121 4
210.432816 -220.253876 76.411606 0.882148 110121 4
211.331589 -218.427628 76.237610 0.884161 110121 4
212.226624 -216.609741 76.067551 0.886138 110121 4
213.117920 -214.800201 75.901276 0.888079 110121 4
214.005707 -212.998566 75.738815 0.889984 110121 4
214.889969 -211.204834 75.580093 0.891853 110121 4
215.770752 -209.418900 75.425156 0.893685 110121 4
216.648224 -207.640457 75.273880 0.895481 110121 4
217.522446 -205.869339 75.126282 0.897241 110121 4
218.393555 -204.105316 74.982323 0.898963 110121 4
219.261642 -202.348099 74.841919 0.900650 110121 4
220.126770 -200.597641 74.705063 0.902299 110121 4
220.989044 -198.853729 74.571793 0.903912 110121 4
221.848511 -197.116211 74.441956 0.905489 110121 4
222.705338 -195.384796 74.315598 0.907028 110121 4
223.559494 -193.659485 74.192734 0.908530 110121 4
224.411163 -191.939972 74.073273 0.909995 110121 4
225.260391 -190.226089 73.957169 0.911424 110121 4
226.107178 -188.517914 73.844467 0.912815 110121 4
226.951752 -186.814896 73.735077 0.914169 110121 4
227.794083 -185.117188 73.629028 0.915486 110121 4
228.634323 -183.424393 73.526253 0.916766 110121 4
229.472473 -181.736542 73.426750 0.918008 110121 4
230.308670 -180.053360 73.330521 0.919213 110121 4
231.142990 -178.374695 73.237488 0.920380 110121 4
231.975433 -176.700516 73.147675 0.921510 110121 4
232.806168 -175.030518 73.061050 0.922603 110121 4
233.635223 -173.364624 72.977600 0.923658 110121 4
234.462677 -171.702667 72.897308 0.924675 110121 4
235.288620 -170.044464 72.820145 0.925655 110121 4
236.113129 -168.389862 72.746094 0.926597 110121 4
241.253601 -169.777008 73.999420 0.130113 110121 4
254.107697 -176.443680 77.600189 0.124075 110121 4
268.278961 -183.793594 81.573219 0.118032 110121 4
283.979828 -191.936981 85.978531 0.111985 110121 4
254.843277 -154.163452 74.711922 0.146918 110123 4
245.726898 -146.545502 71.767639 0.152945 110123 4
237.301956 -139.505325 69.049400 0.158966 110123 4
229.491257 -132.978424 66.531982 0.164981 110123 4
222.229919 -126.910614 64.194176 0.170990 110123 4
215.461227 -121.254456 62.017410 0.176991 110123 4
209.136490 -115.969284 59.985802 0.182985 110123 4
203.212402 -111.018913 58.085182 0.188973 110123 4
197.652054 -106.372498 56.303478 0.194953 110123 4
192.422714 -102.002686 54.630005 0.200925 110123 4
187.494720 -97.884682 53.055088 0.206889 110123 4
182.843124 -93.997643 51.570511 0.212845 110123 4
179.838379 -91.027458 50.560555 0.944951 110123 4
180.673996 -90.027481 50.635296 0.943556 110123 4
181.512161 -89.024437 50.712265 0.942124 110123 4
182.352905 -88.018333 50.791481 0.940655 110123 4
183.196259 -87.009094 50.872971 0.939148 110123 4
184.042419 -85.996506 50.956726 0.937605 110123 4
184.891342 -84.980598 51.042774 0.936024 110123 4
185.743225 -83.961143 51.131149 0.934406 110123 4
186.598068 -82.938164 51.221867 0.932751 110123 4
187.455994 -81.911476 51.314926 0.931060 110123 4
188.317108 -80.880997 51.410389 0.929331 110123 4
189.181396 -79.846703 51.508217 0.927566 110123 4
190.049088 -78.808342 51.608482 0.925764 110123 4
190.920135 -77.765968 51.711182 0.923925 110123 4
191.794724 -76.719360 51.816341 0.922050 110123 4
192.672913 -75.668419 51.923988 0.920138 110123 4
193.554764 -74.613121 52.034149 0.918190 110123 4
194.440430 -73.553230 52.146851 0.916206 110123 4
195.329941 -72.488770 52.262108 0.914185 110123 4
196.223480 -71.419472 52.379959 0.912129 110123 4
197.121033 -70.345367 52.500412 0.910036 110123 4
198.022827 -69.266212 52.623520 0.907907 110123 4
198.928864 -68.181961 52.749283 0.905742 110123 4
199.839264 -67.092484 52.877762 0.903542 110123 4
200.754166 -65.997620 53.008961 0.901305 110123 4
201.673615 -64.897324 53.142899 0.899034 110123 4
202.597809 -63.791336 53.279663 0.896726 110123 4
203.526794 -62.679642 53.419231 0.894383 110123 4
204.460693 -61.562027 53.561676 0.892005 110123 4
205.399658 -60.438393 53.706993 0.889591 110123 4
206.343719 -59.308640 53.855251 0.887142 110123 4
207.293060 -58.172569 54.006454 0.884658 110123 4
208.247757 -57.030067 54.160667 0.882139 110123 4
209.208038 -55.880920 54.317944 0.879585 110123 4
210.173874 -54.725098 54.478260 0.876997 110123 4
211.145508 -53.562355 54.641693 0.874373 110123 4
212.123032 -52.392544 54.808311 0.871715 110123 4
213.106522 -51.215611 54.978111 0.869023 110123 4
214.096237 -50.031227 55.151176 0.866296 110123 4
215.092178 -48.839382 55.327507 0.863535 110123 4
216.094604 -47.639793 55.507179 0.860740 110123 4
217.103546 -46.432392 55.690231 0.857911 110123 4
218.119263 -45.216885 55.876713 0.855048 110123 4
219.141830 -43.993183 56.066681 0.852151 110123 4
177.383591 -34.451012 45.326645 0.336342 110119 0
174.945251 -32.836979 44.649925 0.574306 110119 0
173.665451 -31.467358 44.271900 0.579210 110119 0
172.666275 -30.165916 43.967949 0.729291 110119 0
171.908356 -28.920467 43.727772 0.733297 110119 0
171.165543 -27.689678 43.493652 0.827052 110119 0
170.682617 -26.511036 43.327721 0.830220 110119 0
170.203369 -25.341354 43.164753 0.833354 110119 0
169.727692 -24.180365 43.004692 0.836456 110119 0
169.389542 -23.046177 42.881439 0.894645 110119 0
169.090073 -21.923147 42.769867 0.896978 110119 0
168.792145 -20.805904 42.660568 0.899277 110119 0
168.495758 -19.694363 42.553520 0.901539 110119 0
168.320633 -18.601536 42.478905 0.936986 110119 0
168.156281 -17.513596 42.408791 0.938535 110119 0
167.992462 -16.429150 42.340572 0.940047 110119 0
167.829178 -15.348196 42.274254 0.941522 110119 0
167.732895 -14.276192 42.226547 0.960918 110119 0
167.681076 -13.210049 42.191750 0.961711 110119 0
167.629349 -12.145666 42.158688 0.962465 110119 0
167.577698 -11.082866 42.127327 0.963181 110119 0
167.527893 -10.021747 42.098129 0.969474 110119 0
167.580536 -8.967495 42.096352 0.969515 110119 0
167.633194 -7.913337 42.096241 0.969517 110119 0
167.685852 -6.859096 42.097797 0.969481 110119 0
167.738510 -5.804737 42.101021 0.969407 110119 0
167.833252 -4.751409 42.116470 0.962189 110119 0
167.993744 -3.698669 42.150066 0.961422 110119 0
168.154480 -2.644251 42.185394 0.960617 110119 0
168.315506 -1.587976 42.222450 0.959774 110119 0
168.476837 -0.529803 42.261246 0.958893 110119 0
168.754639 0.530681 42.330936 0.935641 110119 0
169.039963 1.594815 42.404182 0.934025 110119 0
169.326294 2.662635 42.479362 0.932372 110119 0
169.613663 3.734336 42.556503 0.930682 110119 0
170.041489 4.813882 42.670601 0.885832 110119 0
170.488251 5.899897 42.791183 0.883336 110119 0
170.937561 6.992108 42.914146 0.880804 110119 0
171.482910 8.095023 43.062981 0.802778 110119 0
172.165421 9.212842 43.248077 0.799343 110119 0
172.853821 10.340306 43.436474 0.795876 110119 0
173.804474 11.494678 43.692677 0.662153 110119 0
174.909042 12.673076 43.989521 0.657685 110119 0
176.700165 13.920579 44.461121 0.435456 110119 0
195.449921 106.778145 55.866428 0.220660 93574 2
190.500946 105.635506 54.640625 0.225610 93574 2
187.410690 105.468544 53.943443 0.376842 93574 2
184.587326 105.413689 53.320564 0.381244 93574 2
181.830215 105.361313 52.714542 0.385627 93574 2
179.680817 105.630898 52.282978 0.515328 93574 2
177.757904 106.010460 51.916435 0.518966 93574 2
175.863144 106.385674 51.557453 0.522580 93574 2
174.026398 106.775330 51.214851 0.624130 93574 2
172.284988 107.204185 50.899788 0.627993 93574 2
170.929108 107.857681 50.698616 0.736881 93574 2
169.586700 108.507866 50.501884 0.739751 93574 2
168.255203 109.153488 50.308823 0.742590 93574 2
166.934464 109.794586 50.119396 0.745397 93574 2
165.624191 110.431335 49.933563 0.748171 93574 2
164.324203 111.063782 49.751236 0.750913 93574 2
163.242340 111.834702 49.635674 0.821327 93574 2
162.217239 112.638000 49.538399 0.822939 93574 2
161.196594 113.438599 49.443626 0.824517 93574 2
160.180359 114.236557 49.351330 0.826059 93574 2
159.168457 115.031914 49.261486 0.827565 93574 2
158.160660 115.824860 49.174076 0.829036 93574 2
157.157013 116.615349 49.089088 0.830472 93574 2
156.306763 117.516037 49.053413 0.857404 93574 2
155.522858 118.464973 49.040272 0.857634 93574 2
154.739838 119.413826 49.029205 0.857827 93574 2
153.957596 120.362732 49.020248 0.857984 93574 2
153.176147 121.311668 49.013405 0.858104 93574 2
152.395325 122.260849 49.008652 0.858187 93574 2
151.615173 123.210182 49.005993 0.858234 93574 2
150.881226 124.197617 49.020294 0.840134 93574 2
150.305710 125.317978 49.088409 0.838969 93574 2
149.729019 126.441986 49.158821 0.837767 93574 2
149.151138 127.569687 49.231556 0.836529 93574 2
148.572037 128.701202 49.306633 0.835256 93574 2
147.991638 129.836639 49.384048 0.833946 93574 2
147.409866 130.976120 49.463829 0.832601 93574 2
146.827133 132.120209 49.546154 0.770511 93574 2
146.467468 133.473206 49.707058 0.768016 93574 2
146.105988 134.835587 49.871235 0.765489 93574 2
145.742645 136.207504 50.038643 0.762928 93574 2
145.377380 137.589127 50.209328 0.760334 93574 2
145.010101 138.980881 50.383381 0.757707 93574 2
144.640823 140.382767 50.560841 0.755048 93574 2
144.443390 141.966324 50.802956 0.652539 93574 2
144.361786 143.682388 51.091103 0.648858 93574 2
144.298843 145.437836 51.391556 0.545552 93574 2
144.292740 147.272797 51.718262 0.542106 93574 2
144.287766 149.132538 52.051636 0.538634 93574 2
144.569183 151.316315 52.495422 0.413758 93574 2
145.105270 153.802521 53.040260 0.409508 93574 2
145.654297 156.342789 53.599331 0.405237 93574 2
146.316269 159.047394 54.209991 0.257601 93574 2
148.106628 163.039703 55.252144 0.252742 93574 2
150.676758 167.979614 56.604080 0.089521 93574 2
159.995743 277.120758 80.267242 0.024868 93572 2
155.190155 272.744293 78.715363 0.043087 93572 2
152.590897 272.144257 78.263641 0.244512 93572 2
150.845978 273.043762 78.247940 0.244561 93572 2
149.132614 273.999908 78.251587 0.236451 93572 2
148.023041 276.082642 78.578964 0.044713 93572 2
148.586884 281.369385 79.816116 0.028003 93572 2
46.396702 268.054993 68.239220 0.116684 93563 2
43.916485 263.579102 67.028114 0.340586 93563 2
41.822159 261.130310 66.337173 0.344134 93563 2
39.817837 259.038849 65.740952 0.447132 93563 2
37.948273 257.657654 65.328552 0.449955 93563 2
36.102539 256.297119 64.924736 0.452753 93563 2
34.287804 255.016586 64.544449 0.529513 93563 2
32.563396 254.291565 64.307838 0.531461 93563 2
30.851854 253.574677 64.076202 0.533382 93563 2
29.152838 252.865784 63.849468 0.535276 93563 2
27.467752 252.179489 63.631294 0.581344 93563 2
25.838699 251.933411 63.526947 0.582299 93563 2
24.215229 251.690735 63.426094 0.583225 93563 2
22.596912 251.451447 63.328720 0.584122 93563 2
20.983788 251.215485 63.234795 0.584989 93563 2
19.387581 251.136353 63.182945 0.597162 93563 2
17.811018 251.301605 63.195091 0.597048 93563 2
16.234043 251.469452 63.210373 0.596903 93563 2
14.656474 251.639954 63.228806 0.596729 93563 2
13.077963 251.813171 63.250408 0.596525 93563 2
11.509190 252.225449 63.334518 0.574175 93563 2
9.943006 252.811722 63.464775 0.572997 93563 2
8.370390 253.403122 63.598770 0.571790 93563 2
6.791105 253.999786 63.736534 0.570554 93563 2
5.205725 254.636719 63.886898 0.515725 93563 2
3.619278 255.732925 64.154938 0.513570 93563 2
2.019402 256.841492 64.428581 0.511389 93563 2
0.405636 257.962769 64.707939 0.509181 93563 2
-1.222960 259.262268 65.034531 0.424553 93563 2
-2.873911 261.110382 65.501358 0.421528 93563 2
-4.549088 262.989410 65.978622 0.418478 93563 2
-6.258047 265.287079 66.563599 0.308846 93563 2
-8.023340 268.486023 67.377594 0.305115 93563 2
-9.979563 275.831024 69.235291 0.083322 93563 2
191.944031 -256.140076 73.055817 0.843854 110121 4
192.935104 -254.116455 72.823318 0.846549 110121 4
193.920197 -252.105728 72.595146 0.849209 110121 4
194.899323 -250.107910 72.371429 0.851834 110121 4
195.872757 -248.122437 72.151978 0.854425 110121 4
196.840546 -246.149200 71.936752 0.856981 110121 4
197.802856 -244.187866 71.725754 0.859503 110121 4
198.759796 -242.238174 71.518829 0.861989 110121 4
199.711441 -240.299957 71.316025 0.864440 110121 4
200.658020 -238.372803 71.117218 0.866857 110121 4
201.599609 -236.456528 70.922440 0.869238 110121 4
202.536240 -234.551056 70.731583 0.871583 110121 4
203.468170 -232.655838 70.544586 0.873893 110121 4
204.395416 -230.770844 70.361435 0.876168 110121 4
205.318100 -228.895844 70.182068 0.878407 110121 4
206.236359 -227.030518 70.006500 0.880610 110121 4
207.150314 -225.174652 69.834610 0.882778 110121 4
208.060028 -223.328079 69.666412 0.884910 110121 4
208.965622 -221.490570 69.501816 0.887005 110121 4
209.867218 -219.661880 69.340790 0.889065 110121 4
210.764862 -217.841858 69.183350 0.891088 110121 4
211.658752 -216.030212 69.029404 0.893076 110121 4
212.548904 -214.226746 68.878937 0.895027 110121 4
213.435562 -212.431091 68.731865 0.896941 110121 4
214.318665 -210.643311 68.588196 0.898820 110121 4
215.198288 -208.863251 68.447968 0.900661 110121 4
216.074570 -207.090637 68.311073 0.902467 110121 4
216.947617 -205.325256 68.177475 0.904235 110121 4
217.817535 -203.566895 68.047150 0.905967 110121 4
218.684387 -201.815338 67.920044 0.907662 110121 4
219.548294 -200.070480 67.796188 0.909320 110121 4
220.409332 -198.332077 67.675606 0.910941 110121 4
221.267548 -196.600037 67.558075 0.912525 110121 4
222.123108 -194.874008 67.443733 0.914072 110121 4
222.975983 -193.154114 67.332520 0.915582 110121 4
223.826416 -191.439789 67.224335 0.917055 110121 4
224.674332 -189.731186 67.119270 0.918491 110121 4
225.519821 -188.028168 67.017242 0.919889 110121 4
226.363083 -186.330307 66.918243 0.921250 110121 4
227.204056 -184.637695 66.822189 0.922574 110121 4
228.042923 -182.949982 66.729218 0.923860 110121 4
228.879730 -181.267090 66.639145 0.925109 110121 4
229.714554 -179.588867 66.552002 0.926320 110121 4
230.547440 -177.915161 66.467812 0.927493 110121 4
231.378479 -176.245834 66.386520 0.928629 110121 4
232.207794 -174.580658 66.308121 0.929727 110121 4
233.035385 -172.919556 66.232513 0.930788 110121 4
233.861404 -171.262299 66.159866 0.931810 110121 4
234.685852 -169.608841 66.090004 0.932795 110121 4
235.508850 -167.958939 66.022995 0.933742 110121 4
239.923676 -168.841049 66.961609 0.131506 110121 4
252.638840 -175.423737 70.201019 0.125437 110121 4
266.648987 -182.676971 73.773300 0.119363 110121 4
282.162231 -190.708496 77.731903 0.113285 110121 4
299.436829 -199.652008 82.143311 0.107201 110121 4
254.843246 -154.163422 67.981079 0.147672 110123 4
245.726837 -146.545441 65.302055 0.153730 110123 4
237.302063 -139.505402 62.828766 0.159782 110123 4
229.491287 -132.978455 60.538101 0.165828 110123 4
222.230011 -126.910675 58.410866 0.171867 110123 4
215.461182 -121.254410 56.430237 0.177899 110123 4
209.136505 -115.969299 54.581631 0.183925 110123 4
203.212463 -111.018959 52.852283 0.189943 110123 4
197.652100 -106.372528 51.231102 0.195953 110123 4
192.422623 -102.002609 49.708351 0.201956 110123 4
187.494843 -97.884773 48.275368 0.207951 110123 4
182.843048 -93.997581 46.924438 0.213937 110123 4
179.838379 -91.027451 46.005550 0.949801 110123 4
180.673996 -90.027473 46.073517 0.948399 110123 4
181.512146 -89.024460 46.143559 0.946959 110123 4
182.352905 -88.018341 46.215664 0.945482 110123 4
183.196259 -87.009094 46.289806 0.943968 110123 4
184.042419 -85.996498 46.366013 0.942416 110123 4
184.891357 -84.980568 46.444328 0.940828 110123 4
185.743225 -83.961151 46.524708 0.939201 110123 4
186.598068 -82.938171 46.607246 0.937538 110123 4
187.456009 -81.911469 46.691963 0.935838 110123 4
188.317108 -80.880997 46.778809 0.934100 110123 4
189.181396 -79.846687 46.867836 0.932326 110123 4
190.049072 -78.808357 46.959053 0.930515 110123 4
190.920120 -77.765984 47.052521 0.928667 110123 4
191.794708 -76.719360 47.148193 0.926782 110123 4
192.672913 -75.668427 47.246170 0.924861 110123 4
193.554764 -74.613113 47.346367 0.922903 110123 4
194.440445 -73.553223 47.448921 0.920908 110123 4
195.329941 -72.488762 47.553802 0.918877 110123 4
196.223480 -71.419464 47.661034 0.916810 110123 4
197.121033 -70.345383 47.770630 0.914706 110123 4
198.022812 -69.266220 47.882645 0.912566 110123 4
198.928864 -68.181961 47.997101 0.910391 110123 4
199.839264 -67.092484 48.113987 0.908179 110123 4
200.754166 -65.997620 48.233337 0.905931 110123 4
201.673645 -64.897293 48.355263 0.903647 110123 4
202.597809 -63.791340 48.479694 0.901328 110123 4
203.526764 -62.679661 48.606682 0.898973 110123 4
204.460709 -61.562019 48.736298 0.896582 110123 4
205.399658 -60.438393 48.868523 0.894156 110123 4
206.343704 -59.308651 49.003426 0.891695 110123 4
207.293060 -58.172554 49.141006 0.889198 110123 4
208.247772 -57.030060 49.281334 0.886666 110123 4
209.208038 -55.880928 49.424423 0.884099 110123 4
210.173859 -54.725113 49.570305 0.881497 110123 4
211.145508 -53.562355 49.719040 0.878861 110123 4
212.123032 -52.392555 49.870613 0.876189 110123 4
213.106537 -51.215595 50.025124 0.873483 110123 4
214.096252 -50.031216 50.182568 0.870742 110123 4
215.092194 -48.839371 50.343010 0.867967 110123 4
216.094604 -47.639786 50.506527 0.865157 110123 4
217.103546 -46.432381 50.673088 0.862314 110123 4
218.119247 -45.216900 50.842770 0.859436 110123 4
219.141830 -43.993179 51.015617 0.856524 110123 4
177.380203 -34.450340 41.242363 0.338075 110119 0
174.940063 -32.836002 40.626190 0.577271 110119 0
173.660339 -31.466423 40.282215 0.582200 110119 0
172.660538 -30.164913 40.005505 0.733058 110119 0
171.902679 -28.919506 39.786980 0.737085 110119 0
171.159515 -27.688713 39.573895 0.831326 110119 0
170.676636 -26.510105 39.422924 0.834510 110119 0
170.197433 -25.340481 39.274658 0.837660 110119 0
169.721786 -24.179520 39.129017 0.840778 110119 0
169.383377 -23.045328 39.016834 0.899269 110119 0
169.083939 -21.922354 38.915314 0.901615 110119 0
168.786041 -20.805153 38.815872 0.903925 110119 0
168.489670 -19.693649 38.718460 0.906199 110119 0
168.314331 -18.600842 38.650517 0.941830 110119 0
168.149994 -17.512939 38.586723 0.943387 110119 0
167.986191 -16.428537 38.524647 0.944907 110119 0
167.822922 -15.347618 38.464310 0.946389 110119 0
167.726440 -14.275639 38.420845 0.965887 110119 0
167.674622 -13.209541 38.389183 0.966683 110119 0
167.622910 -12.145195 38.359112 0.967442 110119 0
167.571259 -11.082436 38.330585 0.968162 110119 0
167.521225 -10.021349 38.303963 0.974488 110119 0
167.573883 -8.967140 38.302361 0.974529 110119 0
167.626526 -7.913020 38.302250 0.974532 110119 0
167.679184 -6.858824 38.303673 0.974496 110119 0
167.731842 -5.804506 38.306602 0.974421 110119 0
167.826324 -4.751212 38.320602 0.967167 110119 0
167.986801 -3.698516 38.351166 0.966396 110119 0
168.147522 -2.644140 38.383312 0.965587 110119 0
168.308548 -1.587910 38.417027 0.964740 110119 0
168.469864 -0.529780 38.452305 0.963854 110119 0
168.747330 0.530657 38.515629 0.940484 110119 0
169.032623 1.594746 38.582306 0.938859 110119 0
169.318924 2.662519 38.650707 0.937198 110119 0
169.606277 3.734176 38.720894 0.935499 110119 0
170.033630 4.813660 38.824604 0.890419 110119 0
170.480362 5.899622 38.934307 0.887910 110119 0
170.929626 6.991784 39.046188 0.885366 110119 0
171.474289 8.094617 39.181454 0.806939 110119 0
172.156723 9.212377 39.349854 0.803486 110119 0
172.845047 10.339784 39.521275 0.800001 110119 0
173.794449 11.494012 39.754089 0.665590 110119 0
174.898880 12.672338 40.024178 0.661099 110119 0
176.686829 13.919528 40.452530 0.437724 110119 0
196.827957 104.337814 50.846386 0.289892 93574 2
192.564774 103.634644 49.912483 0.295316 93574 2
188.993988 103.251122 49.154305 0.461289 93574 2
186.385117 103.353241 48.643867 0.466130 93574 2
183.830719 103.453819 48.146065 0.470949 93574 2
181.328964 103.552917 47.660484 0.475747 93574 2
179.356033 103.927628 47.312813 0.617894 93574 2
177.551605 104.379158 47.009026 0.621886 93574 2
175.770828 104.825394 46.711201 0.625852 93574 2
174.013046 105.266464 46.419113 0.629790 93574 2
172.277817 105.702477 46.132660 0.633700 93574 2
170.808548 106.285461 45.917328 0.744112 93574 2
169.472214 106.938354 45.737984 0.747030 93574 2
168.146759 107.586578 45.561989 0.749915 93574 2
166.832062 108.230186 45.389301 0.752768 93574 2
165.527725 108.869362 45.219833 0.755589 93574 2
164.233643 109.504150 45.053566 0.758378 93574 2
163.012299 110.177078 44.907722 0.830253 93574 2
161.992905 110.978760 44.818317 0.831909 93574 2
160.978073 111.777565 44.731155 0.833530 93574 2
159.967560 112.573692 44.646225 0.835116 93574 2
158.961334 113.367188 44.563526 0.836666 93574 2
157.959335 114.158073 44.483013 0.838180 93574 2
156.961319 114.946526 44.404671 0.839658 93574 2
155.967270 115.732574 44.328503 0.841101 93574 2
155.160400 116.654167 44.306839 0.868171 93574 2
154.382538 117.596367 44.295040 0.868402 93574 2
153.605499 118.538483 44.285126 0.868597 93574 2
152.829208 119.480576 44.277107 0.868754 93574 2
152.053635 120.422684 44.270927 0.868875 93574 2
151.278656 121.364983 44.266697 0.868959 93574 2
150.504272 122.307434 44.264313 0.869005 93574 2
149.752090 123.268127 44.270237 0.850813 93574 2
149.179291 124.378845 44.331287 0.849642 93574 2
148.605331 125.493073 44.394417 0.848433 93574 2
148.030151 126.610909 44.459610 0.847189 93574 2
147.453705 127.732460 44.526878 0.845909 93574 2
146.875916 128.857834 44.596252 0.844593 93574 2
146.296783 129.987122 44.667747 0.843241 93574 2
145.716187 131.120514 44.741425 0.841853 93574 2
145.269287 132.381256 44.858948 0.778325 93574 2
144.906830 133.728867 45.005833 0.775784 93574 2
144.542465 135.085831 45.155693 0.773210 93574 2
144.176163 136.452255 45.308453 0.770603 93574 2
143.807800 137.828568 45.464233 0.767963 93574 2
143.437393 139.214783 45.623028 0.765290 93574 2
143.064819 140.611374 45.784885 0.762585 93574 2
142.966034 142.293182 46.038834 0.658556 93574 2
142.876953 144.004745 46.300911 0.654828 93574 2
142.787415 145.736435 46.568016 0.651072 93574 2
142.697418 147.488815 46.840248 0.647288 93574 2
142.606903 149.262482 47.117771 0.643475 93574 2
142.778107 151.335846 47.487907 0.506552 93574 2
143.138947 153.642853 47.928345 0.501897 93574 2
143.507278 155.993988 48.379242 0.497219 93574 2
143.883362 158.390564 48.840900 0.492519 93574 2
144.897690 161.536972 49.529114 0.330380 93574 2
146.236816 165.107315 50.340820 0.325053 93574 2
148.858307 170.212067 51.610817 0.089795 93574 2
171.472031 261.605377 71.393158 0.226046 93572 2
167.609467 259.254303 70.462448 0.229031 93572 2
164.402298 257.835907 69.794472 0.316119 93572 2
161.550888 256.914276 69.268593 0.318519 93572 2
158.954147 256.348663 68.845230 0.384978 93572 2
156.643005 256.205322 68.540787 0.386688 93572 2
154.354858 256.067749 68.242935 0.388375 93572 2
152.249512 256.206085 68.023224 0.430572 93572 2
150.313339 256.609314 67.877930 0.431493 93572 2
148.387695 257.014862 67.737000 0.432391 93572 2
146.476410 257.430115 67.602295 0.448378 93572 2
144.825073 258.293945 67.588600 0.448469 93572 2
143.176544 259.161377 67.578613 0.448535 93572 2
141.530487 260.032562 67.572311 0.448577 93572 2
139.960510 261.044983 67.605270 0.436830 93572 2
138.559647 262.381592 67.724434 0.436062 93572 2
137.155823 263.726959 67.847641 0.435270 93572 2
135.749023 265.081482 67.975136 0.434454 93572 2
134.545044 266.854248 68.211372 0.395548 93572 2
133.400238 268.775482 68.486694 0.393958 93572 2
132.248337 270.716919 68.768066 0.392346 93572 2
131.355057 273.232727 69.195862 0.328862 93572 2
130.552612 275.995300 69.686188 0.326548 93572 2
130.003235 279.366180 70.329491 0.241996 93572 2
129.807236 283.594299 71.186951 0.239081 93572 2
54.105621 271.728027 63.237701 0.078292 93563 2
50.916775 264.384003 61.452785 0.219241 93563 2
48.439827 260.328674 60.438171 0.345457 93563 2
46.329239 257.998779 59.828426 0.453867 93563 2
44.304619 255.967865 59.291641 0.457976 93563 2
42.386391 254.395691 58.864586 0.577588 93563 2
40.554550 253.215546 58.531326 0.580876 93563 2
38.743629 252.050507 58.204544 0.584138 93563 2
36.953102 250.900177 57.884098 0.587372 93563 2
35.229996 250.102798 57.647888 0.676262 93563 2
33.544022 249.484467 57.455559 0.678525 93563 2
31.869366 248.871765 57.267189 0.680758 93563 2
30.205782 248.264511 57.082615 0.682959 93563 2
28.552963 247.662643 56.901810 0.685129 93563 2
26.950352 247.429291 56.808125 0.737911 93563 2
25.356030 247.227295 56.724014 0.739005 93563 2
23.766504 247.027298 56.642712 0.740066 93563 2
22.181530 246.829193 56.564140 0.741093 93563 2
20.601078 246.633057 56.488419 0.742087 93563 2
19.041681 246.655762 56.465065 0.756035 93563 2
17.492882 246.813553 56.474876 0.755904 93563 2
15.943743 246.972733 56.487236 0.755738 93563 2
14.393895 247.133362 56.502148 0.755539 93563 2
12.843354 247.295410 56.519608 0.755305 93563 2
11.294209 247.514771 56.552406 0.729697 93563 2
9.755329 248.039841 56.657223 0.728347 93563 2
8.210696 248.568329 56.765034 0.726964 93563 2
6.660110 249.100281 56.875816 0.725548 93563 2
5.103511 249.635727 56.989624 0.724099 93563 2
3.540611 250.174774 57.106472 0.722618 93563 2
1.974516 251.134003 57.321465 0.657760 93563 2
0.396383 252.110992 57.542747 0.655230 93563 2
-1.193802 253.097076 57.768387 0.652671 93563 2
-2.796650 254.092590 57.998489 0.650082 93563 2
-4.417431 255.375671 58.296535 0.551307 93563 2
-6.062092 256.983124 58.671043 0.547789 93563 2
-7.728336 258.613525 59.053196 0.544243 93563 2
-9.416569 260.267426 59.443207 0.540673 93563 2
-11.167500 262.893585 60.057796 0.313062 93563 2
-12.978485 266.051544 60.796700 0.309257 93563 2
-14.932522 271.066559 61.963009 0.178021 93563 2
191.407227 -255.423874 65.708549 0.850155 110121 4
192.397278 -253.408081 65.499992 0.852862 110121 4
193.381287 -251.405212 65.295380 0.855534 110121 4
194.359406 -249.414993 65.094666 0.858172 110121 4
195.331757 -247.437134 64.897842 0.860775 110121 4
196.298523 -245.471329 64.704773 0.863343 110121 4
197.259720 -243.517441 64.515533 0.865876 110121 4
198.215591 -241.575058 64.329926 0.868374 110121 4
199.166229 -239.643936 64.147995 0.870837 110121 4
200.111725 -237.723892 63.969685 0.873264 110121 4
201.052246 -235.814606 63.794956 0.875656 110121 4
201.987823 -233.915939 63.623711 0.878013 110121 4
202.918686 -232.027527 63.455959 0.880334 110121 4
203.844818 -230.149323 63.291679 0.882619 110121 4
204.766449 -228.280869 63.130783 0.884868 110121 4
205.683640 -226.422058 62.973259 0.887082 110121 4
206.596512 -224.572632 62.819042 0.889260 110121 4
207.505112 -222.732452 62.668118 0.891401 110121 4
208.409592 -220.901291 62.520473 0.893506 110121 4
209.310089 -219.078766 62.375999 0.895576 110121 4
210.206619 -217.264923 62.234737 0.897608 110121 4
211.099365 -215.459305 62.096600 0.899605 110121 4
211.988419 -213.661819 61.961609 0.901565 110121 4
212.873932 -211.872101 61.829697 0.903489 110121 4
213.755875 -210.090195 61.700813 0.905376 110121 4
214.634338 -208.315948 61.574970 0.907226 110121 4
215.509476 -206.549011 61.452133 0.909040 110121 4
216.381317 -204.789337 61.332253 0.910816 110121 4
217.250031 -203.036606 61.215328 0.912556 110121 4
218.115753 -201.290527 61.101299 0.914259 110121 4
218.978424 -199.551178 60.990189 0.915925 110121 4
219.838242 -197.818192 60.881939 0.917553 110121 4
220.695221 -196.091522 60.776516 0.919145 110121 4
221.549545 -194.370834 60.673901 0.920699 110121 4
222.401169 -192.656158 60.574089 0.922217 110121 4
223.250290 -190.947113 60.477047 0.923696 110121 4
224.096939 -189.243683 60.382782 0.925139 110121 4
224.941162 -187.545715 60.291222 0.926543 110121 4
225.783096 -185.852905 60.202374 0.927911 110121 4
226.622757 -184.165314 60.116230 0.929241 110121 4
227.460312 -182.482544 60.032742 0.930533 110121 4
228.295731 -180.804626 59.951908 0.931787 110121 4
229.129196 -179.131256 59.873711 0.933004 110121 4
229.960709 -177.462387 59.798157 0.934183 110121 4
230.790344 -175.797882 59.725235 0.935324 110121 4
231.618256 -174.137421 59.654839 0.936427 110121 4
232.444427 -172.481049 59.587040 0.937493 110121 4
233.268982 -170.828491 59.521839 0.938520 110121 4
234.091980 -169.179642 59.459137 0.939509 110121 4
234.913498 -167.534363 59.398987 0.940461 110121 4
238.620529 -167.924026 60.068077 0.132838 110121 4
251.200562 -174.425110 62.957474 0.126742 110121 4
265.054535 -181.584641 66.142067 0.120640 110121 4
280.384613 -189.507095 69.668755 0.114533 110121 4
297.444275 -198.323486 73.596252 0.108421 110121 4
316.543518 -208.194061 77.996460 0.102304 110121 4
254.843262 -154.163437 61.315643 0.148359 110123 4
245.727051 -146.545624 58.899330 0.154445 110123 4
237.302124 -139.505463 56.668503 0.160525 110123 4
229.491241 -132.978409 54.602406 0.166599 110123 4
222.230179 -126.910812 52.683846 0.172666 110123 4
215.461258 -121.254471 50.897350 0.178726 110123 4
209.136429 -115.969223 49.229996 0.184780 110123 4
203.212402 -111.018913 47.670166 0.190826 110123 4
197.652039 -106.372467 46.207932 0.196865 110123 4
192.422729 -102.002678 44.834568 0.202895 110123 4
187.494812 -97.884758 43.542072 0.208918 110123 4
182.843109 -93.997635 42.323654 0.214932 110123 4
179.838379 -91.027458 41.494762 0.954216 110123 4
180.673981 -90.027489 41.556095 0.952808 110123 4
181.512146 -89.024483 41.619270 0.951362 110123 4
182.352905 -88.018341 41.684288 0.949878 110123 4
183.196243 -87.009109 41.751148 0.948357 110123 4
184.042419 -85.996490 41.819893 0.946798 110123 4
184.891357 -84.980576 41.890522 0.945202 110123 4
185.743240 -83.961136 41.963058 0.943568 110123 4
186.598068 -82.938164 42.037498 0.941897 110123 4
187.456009 -81.911461 42.113876 0.940189 110123 4
188.317093 -80.881004 42.192219 0.938443 110123 4
189.181396 -79.846718 42.272514 0.936661 110123 4
190.049072 -78.808357 42.354797 0.934841 110123 4
190.920135 -77.765968 42.439072 0.932984 110123 4
191.794724 -76.719345 42.525379 0.931091 110123 4
192.672913 -75.668427 42.613731 0.929160 110123 4
193.554779 -74.613106 42.704136 0.927193 110123 4
194.440445 -73.553223 42.796635 0.925189 110123 4
195.329941 -72.488770 42.891228 0.923149 110123 4
196.223495 -71.419456 42.987942 0.921072 110123 4
197.121033 -70.345367 43.086796 0.918959 110123 4
198.022812 -69.266220 43.187820 0.916809 110123 4
198.928864 -68.181953 43.291054 0.914623 110123 4
199.839264 -67.092484 43.396469 0.912401 110123 4
200.754166 -65.997620 43.504158 0.910143 110123 4
201.673630 -64.897301 43.614090 0.907849 110123 4
202.597839 -63.791313 43.726334 0.905518 110123 4
203.526779 -62.679649 43.840878 0.903153 110123 4
204.460709 -61.562012 43.957771 0.900751 110123 4
205.399643 -60.438393 44.077042 0.898313 110123 4
206.343719 -59.308632 44.198700 0.895841 110123 4
207.293060 -58.172554 44.322796 0.893332 110123 4
208.247772 -57.030052 44.449371 0.890789 110123 4
209.208023 -55.880928 44.578423 0.888210 110123 4
210.173874 -54.725105 44.710014 0.885596 110123 4
211.145508 -53.562347 44.844143 0.882947 110123 4
212.123032 -52.392544 44.980881 0.880263 110123 4
213.106537 -51.215591 45.120239 0.877544 110123 4
214.096252 -50.031204 45.262264 0.874790 110123 4
215.092194 -48.839382 45.406975 0.872002 110123 4
216.094620 -47.639771 45.554428 0.869180 110123 4
217.103546 -46.432381 45.704659 0.866323 110123 4
218.119263 -45.216885 45.857708 0.863432 110123 4
219.141830 -43.993172 46.013611 0.860506 110123 4
177.376938 -34.449722 37.197952 0.339653 110119 0
174.934937 -32.835037 36.641777 0.579971 110119 0
173.655304 -31.465527 36.331619 0.584923 110119 0
172.654861 -30.163921 36.081886 0.736490 110119 0
171.897049 -28.918564 35.884785 0.740535 110119 0
171.153564 -27.687748 35.692528 0.835220 110119 0
170.670715 -26.509190 35.556335 0.838419 110119 0
170.191544 -25.339603 35.422604 0.841584 110119 0
169.715942 -24.178690 35.291267 0.844716 110119 0
169.377289 -23.044514 35.190018 0.903482 110119 0
169.077881 -21.921572 35.098476 0.905839 110119 0
168.779999 -20.804409 35.008781 0.908160 110119 0
168.483658 -19.692947 34.920929 0.910444 110119 0
168.308090 -18.600149 34.859596 0.946244 110119 0
168.143784 -17.512291 34.802063 0.947808 110119 0
167.979996 -16.427931 34.746086 0.949335 110119 0
167.816742 -15.347058 34.691673 0.950824 110119 0
167.720047 -14.275095 34.652439 0.970414 110119 0
167.668243 -13.209036 34.623871 0.971215 110119 0
167.616531 -12.144733 34.596741 0.971977 110119 0
167.564896 -11.082017 34.571018 0.972700 110119 0
167.514633 -10.020956 34.546970 0.979057 110119 0
167.567291 -8.966787 34.545513 0.979098 110119 0
167.619934 -7.912712 34.545414 0.979101 110119 0
167.672577 -6.858553 34.546692 0.979065 110119 0
167.725235 -5.804276 34.549339 0.978990 110119 0
167.819458 -4.751019 34.561913 0.971703 110119 0
167.979935 -3.698365 34.589481 0.970929 110119 0
168.140640 -2.644032 34.618465 0.970116 110119 0
168.301651 -1.587846 34.648872 0.969264 110119 0
168.462952 -0.529758 34.680710 0.968375 110119 0
168.740082 0.530633 34.737762 0.944897 110119 0
169.025360 1.594677 34.797867 0.943265 110119 0
169.311646 2.662405 34.859562 0.941595 110119 0
169.598953 3.734014 34.922859 0.939889 110119 0
170.025864 4.813440 35.016308 0.894599 110119 0
170.472549 5.899352 35.115242 0.892079 110119 0
170.921783 6.991464 35.216145 0.889523 110119 0
171.465759 8.094216 35.338017 0.810731 110119 0
172.148117 9.211917 35.489883 0.807261 110119 0
172.836365 10.339269 35.644474 0.803760 110119 0
173.784515 11.493356 35.854210 0.668722 110119 0
174.888824 12.671607 36.097778 0.664210 110119 0
176.673630 13.918489 36.483505 0.439792 110119 0
204.309006 105.032959 47.292389 0.109903 93574 2
196.891022 102.790199 45.724102 0.292111 93574 2
192.637833 102.116661 44.884666 0.297574 93574 2
189.047836 101.741875 44.196445 0.464885 93574 2
186.445435 101.858803 43.736954 0.469769 93574 2
183.897507 101.973816 43.288837 0.474631 93574 2
181.401901 102.087006 42.851700 0.479473 93574 2
179.342682 102.418610 42.516563 0.623063 93574 2
177.544235 102.877792 42.242775 0.627101 93574 2
175.769455 103.331467 41.974312 0.631112 93574 2
174.070984 103.811707 41.723801 0.701152 93574 2
172.403290 104.292679 41.480473 0.705265 93574 2
170.848358 104.825424 41.264153 0.821586 93574 2
169.549896 105.502335 41.110012 0.824666 93574 2
168.261307 106.174278 40.958675 0.827713 93574 2
166.982208 106.841454 40.810081 0.830727 93574 2
165.712479 107.503937 40.664215 0.833707 93574 2
164.451935 108.161804 40.521015 0.836653 93574 2
163.200287 108.815186 40.380447 0.839566 93574 2
162.095230 109.557304 40.276714 0.914634 93574 2
161.098251 110.365852 40.200687 0.916364 93574 2
160.105133 111.171494 40.126553 0.918057 93574 2
159.115768 111.974289 40.054306 0.919713 93574 2
158.130005 112.774353 39.983925 0.921332 93574 2
157.147903 113.571655 39.915413 0.922913 93574 2
156.169159 114.366440 39.848732 0.924457 93574 2
155.193832 115.158646 39.783886 0.925964 93574 2
154.417160 116.095367 39.771187 0.954237 93574 2
153.645065 117.034607 39.761116 0.954479 93574 2
152.873428 117.973549 39.752663 0.954682 93574 2
152.102203 118.912231 39.745819 0.954846 93574 2
151.331360 119.850693 39.740574 0.954972 93574 2
150.560791 120.789070 39.736938 0.955059 93574 2
149.790482 121.727394 39.734905 0.955108 93574 2
149.026535 122.670906 39.736149 0.936108 93574 2
148.446136 123.767570 39.788170 0.934884 93574 2
147.864288 124.867325 39.841927 0.933622 93574 2
147.280975 125.970177 39.897453 0.932323 93574 2
146.696136 127.076218 39.954754 0.930986 93574 2
146.109726 128.185623 40.013832 0.929611 93574 2
145.521683 129.298431 40.074707 0.928199 93574 2
144.931915 130.414841 40.137394 0.926750 93574 2
144.408325 131.596725 40.220818 0.860399 93574 2
144.021988 132.912308 40.345245 0.857746 93574 2
143.633362 134.236252 40.472099 0.855057 93574 2
143.242447 135.568588 40.601383 0.852334 93574 2
142.849121 136.909744 40.733158 0.849577 93574 2
142.453354 138.259735 40.867451 0.846785 93574 2
142.055054 139.618973 41.004307 0.843959 93574 2
141.763321 141.096130 41.175461 0.735309 93574 2
141.622925 142.740845 41.394623 0.731416 93574 2
141.481171 144.403275 41.617844 0.727493 93574 2
141.338043 146.083817 41.845169 0.723540 93574 2
141.223053 147.814056 42.085545 0.652802 93574 2
141.124695 149.583344 42.335773 0.648944 93574 2
141.362976 151.736588 42.692715 0.510565 93574 2
141.710205 154.040482 43.089325 0.505865 93574 2
142.064606 156.388412 43.495293 0.501143 93574 2
142.426453 158.782028 43.910957 0.496399 93574 2
143.454071 161.965546 44.540932 0.332899 93574 2
144.766708 165.533569 45.270889 0.327532 93574 2
146.911865 170.134048 46.275455 0.147642 93574 2
184.820038 263.509064 66.259979 0.076201 93572 2
177.319260 256.227600 64.147415 0.219094 93572 2
173.079193 253.493164 63.189053 0.347803 93572 2
169.672134 251.890640 62.522358 0.351512 93572 2
166.610931 250.735168 61.974228 0.460087 93572 2
163.959488 250.143921 61.571972 0.463093 93572 2
161.343918 249.562943 61.177963 0.466075 93572 2
158.943298 249.274536 60.860992 0.548986 93572 2
156.759842 249.295197 60.624123 0.551131 93572 2
154.594635 249.317963 60.392017 0.553249 93572 2
152.447266 249.342804 60.164574 0.555341 93572 2
150.515625 249.698700 60.020840 0.607855 93572 2
148.667343 250.178085 59.910126 0.744911 93572 2
146.837616 250.675781 59.806961 0.746196 93572 2
145.014801 251.173050 59.706810 0.747447 93572 2
143.291870 251.833344 59.648354 0.769735 93572 2
141.681808 252.688019 59.638538 0.769861 93572 2
140.072891 253.543686 59.631378 0.769954 93572 2
138.465012 254.400391 59.626869 0.770012 93572 2
136.857895 255.258301 59.625004 0.770036 93572 2
135.436035 256.466583 59.707100 0.752565 93572 2
134.016983 257.691559 59.794857 0.751461 93572 2
132.594376 258.921478 59.885551 0.750323 93572 2
131.171997 260.164215 59.980991 0.612731 93572 2
129.895966 261.715149 60.148987 0.564233 93572 2
128.697083 263.447540 60.359913 0.562261 93572 2
127.490822 265.194641 60.575275 0.560262 93572 2
126.277069 266.956665 60.795155 0.558236 93572 2
125.282440 269.221680 61.130310 0.478935 93572 2
124.333908 271.636566 61.499874 0.476057 93572 2
123.375015 274.084045 61.877068 0.473155 93572 2
122.728806 277.294861 62.426422 0.367625 93572 2
122.187012 280.829865 63.048035 0.364001 93572 2
122.135757 285.609039 63.947258 0.237657 93572 2
123.398682 293.657410 65.574158 0.096369 93572 2
56.421032 265.850647 55.948166 0.145733 93563 2
53.873493 261.949432 55.054733 0.307984 93563 2
51.439438 258.337799 54.226593 0.453755 93563 2
49.357471 256.287445 53.730003 0.457949 93563 2
47.313541 254.276245 53.244919 0.462121 93563 2
45.306366 252.302872 52.770985 0.466272 93563 2
43.463905 251.110733 52.463425 0.587237 93563 2
41.647564 249.961426 52.167557 0.590567 93563 2
39.851582 248.826416 51.877331 0.593871 93563 2
38.075737 247.705521 51.592690 0.597147 93563 2
36.374485 246.972107 51.391266 0.687395 93563 2
34.707611 246.394379 51.224613 0.792278 93563 2
33.054310 245.842743 51.065697 0.794744 93563 2
31.411345 245.295212 50.909920 0.797176 93563 2
29.778381 244.751694 50.757240 0.799574 93563 2
28.178047 244.410858 50.648796 0.858210 93563 2
26.602259 244.233704 50.576416 0.859438 93563 2
25.030949 244.057709 50.506371 0.860630 93563 2
23.463970 243.882828 50.438644 0.861785 93563 2
21.901136 243.709045 50.373222 0.862905 93563 2
20.342344 243.536377 50.310078 0.863988 93563 2
18.807074 243.617523 50.301414 0.879182 93563 2
17.277195 243.770691 50.309601 0.879039 93563 2
15.746954 243.924530 50.319916 0.878859 93563 2
14.216007 244.079086 50.332359 0.878641 93563 2
12.684383 244.234360 50.346931 0.878387 93563 2
11.151589 244.390411 50.363647 0.878096 93563 2
9.629127 244.831696 50.441116 0.849020 93563 2
8.103487 245.322784 50.530796 0.847513 93563 2
6.572263 245.816330 50.622940 0.845970 93563 2
5.035536 246.312347 50.717560 0.844392 93563 2
3.493013 246.810913 50.814697 0.842778 93563 2
1.945110 247.394257 50.931271 0.772123 93563 2
0.390343 248.287750 51.113693 0.769367 93563 2
-1.175428 249.188309 51.299599 0.766579 93563 2
-2.753254 250.149841 51.500084 0.663398 93563 2
-4.343876 251.123779 51.705208 0.660766 93563 2
-5.950890 252.264633 51.946770 0.560629 93563 2
-7.585533 253.834686 52.278866 0.557067 93563 2
-9.241442 255.426819 52.617714 0.553480 93563 2
-10.918945 257.041412 52.963428 0.549868 93563 2
-12.636848 259.048645 53.392342 0.420665 93563 2
-14.415840 261.687103 53.953758 0.416288 93563 2
-16.233040 264.384430 54.529865 0.411889 93563 2
-18.184311 268.542053 55.409859 0.260483 93563 2
-20.297607 274.158844 56.594051 0.094541 93563 2
190.878128 -254.717804 58.466049 0.856067 110121 4
191.867126 -252.709763 58.280979 0.858786 110121 4
192.850128 -250.714508 58.099396 0.861469 110121 4
193.827133 -248.731964 57.921322 0.864118 110121 4
194.798447 -246.761551 57.746643 0.866732 110121 4
195.764160 -244.803116 57.575336 0.869310 110121 4
196.724335 -242.856415 57.407379 0.871854 110121 4
197.679153 -240.921204 57.242691 0.874362 110121 4
198.628723 -238.997162 57.081219 0.876835 110121 4
199.573151 -237.084106 56.922993 0.879273 110121 4
200.512634 -235.181625 56.767902 0.881675 110121 4
201.447159 -233.289749 56.615963 0.884041 110121 4
202.376923 -231.408081 56.467091 0.886372 110121 4
203.302032 -229.536407 56.321274 0.888667 110121 4
204.222595 -227.674469 56.178474 0.890926 110121 4
205.138672 -225.822144 56.038681 0.893148 110121 4
206.050461 -223.979080 55.901802 0.895335 110121 4
206.957977 -222.145172 55.767857 0.897485 110121 4
207.861374 -220.320175 55.636799 0.899600 110121 4
208.760757 -218.503815 55.508591 0.901677 110121 4
209.656189 -216.695999 55.383205 0.903719 110121 4
210.547821 -214.896362 55.260612 0.905724 110121 4
211.435776 -213.104721 55.140778 0.907692 110121 4
212.320160 -211.320862 55.023666 0.909624 110121 4
213.200943 -209.544739 54.909286 0.911519 110121 4
214.078262 -207.776184 54.797577 0.913377 110121 4
214.952225 -206.014954 54.688553 0.915198 110121 4
215.822906 -204.260864 54.582161 0.916982 110121 4
216.690460 -202.513596 54.478378 0.918729 110121 4
217.554962 -200.773026 54.377163 0.920439 110121 4
218.416443 -199.039093 54.278530 0.922111 110121 4
219.275070 -197.311401 54.182430 0.923747 110121 4
220.130829 -195.590027 54.088848 0.925345 110121 4
220.983917 -193.874588 53.997753 0.926906 110121 4
221.834320 -192.165070 53.909142 0.928429 110121 4
222.682190 -190.461182 53.822983 0.929915 110121 4
223.527557 -188.762817 53.739296 0.931364 110121 4
224.370499 -187.069885 53.658028 0.932774 110121 4
225.211121 -185.382111 53.579151 0.934147 110121 4
226.049484 -183.699448 53.502705 0.935483 110121 4
226.885712 -182.021561 53.428585 0.936780 110121 4
227.719803 -180.348511 53.356823 0.938040 110121 4
228.551910 -178.679962 53.287407 0.939262 110121 4
229.382065 -177.015854 53.220333 0.940446 110121 4
230.210327 -175.356033 53.155579 0.941592 110121 4
231.036819 -173.700317 53.093102 0.942699 110121 4
231.861603 -172.048553 53.032909 0.943769 110121 4
232.684723 -170.400589 52.975006 0.944801 110121 4
233.506287 -168.756317 52.919350 0.945794 110121 4
234.326340 -167.115570 52.865944 0.946750 110121 4
237.342972 -167.024948 53.308464 0.134111 110121 4
249.791580 -173.446701 55.858356 0.127989 110121 4
263.492859 -180.514740 58.667202 0.121861 110121 4
278.645142 -188.331390 61.775936 0.115728 110121 4
295.495575 -197.024139 65.235664 0.109591 110121 4
314.346344 -206.748947 69.108841 0.103449 110121 4
254.843231 -154.163422 54.708542 0.148977 110123 4
245.726868 -146.545471 52.552582 0.155089 110123 4
237.302063 -139.505402 50.562134 0.161194 110123 4
229.491241 -132.978409 48.718719 0.167294 110123 4
222.229980 -126.910645 47.006821 0.173386 110123 4
215.461121 -121.254349 45.412857 0.179472 110123 4
209.136475 -115.969269 43.925201 0.185550 110123 4
203.212372 -111.018875 42.533455 0.191622 110123 4
197.652130 -106.372551 41.228806 0.197686 110123 4
192.422729 -102.002678 40.003365 0.203741 110123 4
187.494812 -97.884750 38.850121 0.209789 110123 4
182.843018 -93.997559 37.763000 0.215829 110123 4
179.838379 -91.027443 37.023483 0.958196 110123 4
180.673996 -90.027466 37.078205 0.956782 110123 4
181.512146 -89.024460 37.134571 0.955330 110123 4
182.352890 -88.018333 37.192577 0.953840 110123 4
183.196243 -87.009109 37.252239 0.952312 110123 4
184.042419 -85.996498 37.313576 0.950747 110123 4
184.891357 -84.980576 37.376591 0.949144 110123 4
185.743240 -83.961128 37.441311 0.947503 110123 4
186.598068 -82.938148 37.507744 0.945825 110123 4
187.455994 -81.911476 37.575882 0.944110 110123 4
188.317108 -80.880997 37.645771 0.942357 110123 4
189.181396 -79.846695 37.717422 0.940567 110123 4
190.049072 -78.808350 37.790852 0.938740 110123 4
190.920135 -77.765968 37.866051 0.936876 110123 4
191.794724 -76.719345 37.943050 0.934974 110123 4
192.672913 -75.668404 38.021881 0.933036 110123 4
193.554779 -74.613106 38.102543 0.931061 110123 4
194.440430 -73.553230 38.185066 0.929048 110123 4
195.329956 -72.488762 38.269466 0.926999 110123 4
196.223495 -71.419449 38.355762 0.924914 110123 4
197.121048 -70.345360 38.443958 0.922792 110123 4
198.022827 -69.266205 38.534111 0.920633 110123 4
198.928864 -68.181953 38.626194 0.918438 110123 4
199.839264 -67.092484 38.720280 0.916207 110123 4
200.754150 -65.997635 38.816338 0.913939 110123 4
201.673630 -64.897293 38.914444 0.911635 110123 4
202.597839 -63.791313 39.014580 0.909295 110123 4
203.526794 -62.679626 39.116791 0.906919 110123 4
204.460693 -61.562027 39.221092 0.904508 110123 4
205.399643 -60.438400 39.327499 0.902060 110123 4
206.343719 -59.308632 39.436058 0.899577 110123 4
207.293060 -58.172562 39.546776 0.897058 110123 4
208.247772 -57.030056 39.659706 0.894504 110123 4
209.208008 -55.880928 39.774864 0.891914 110123 4
210.173874 -54.725082 39.892265 0.889289 110123 4
211.145508 -53.562355 40.011940 0.886629 110123 4
212.123047 -52.392540 40.133949 0.883934 110123 4
213.106537 -51.215584 40.258286 0.881204 110123 4
214.096237 -50.031216 40.385010 0.878439 110123 4
215.092194 -48.839375 40.514126 0.875639 110123 4
216.094604 -47.639782 40.645702 0.872805 110123 4
217.103561 -46.432369 40.779739 0.869936 110123 4
218.119263 -45.216877 40.916294 0.867033 110123 4
219.141830 -43.993176 41.055401 0.864095 110123 4
177.373611 -34.449070 33.189064 0.341076 110119 0
174.929840 -32.834080 32.692467 0.582407 110119 0
173.650284 -31.464615 32.415722 0.587380 110119 0
172.649231 -30.162941 32.192802 0.739586 110119 0
171.891479 -28.917629 32.016960 0.743648 110119 0
171.147644 -27.686787 31.845345 0.838733 110119 0
170.664841 -26.508274 31.723890 0.841945 110119 0
170.185715 -25.338743 31.604548 0.845123 110119 0
