ply
format ascii 1.0
element vertex 988
property float32 x
property float32 y
property float32 z
property float32 CosAngle
property uint32 ObjIdx
property uint32 ObjTag
end_header
251.593231 -163.218018 14.967346 0.012534 28861 4
248.053696 -150.056213 14.468781 0.142745 28863 4
238.604675 -142.297958 13.865147 0.148960 28863 4
229.912811 -135.161362 13.310394 0.155168 28863 4
221.889084 -128.573380 12.798801 0.161370 28863 4
214.459076 -122.472855 12.325573 0.167566 28863 4
207.558624 -116.807137 11.886524 0.173756 28863 4
201.132767 -111.531097 11.478130 0.179938 28863 4
195.133347 -106.605179 11.097269 0.186113 28863 4
189.519028 -101.995468 10.741299 0.192281 28863 4
184.253723 -97.672318 10.407860 0.198442 28863 4
179.305084 -93.609154 10.094858 0.204594 28863 4
180.086304 -92.580391 10.105858 0.976271 28863 4
180.914230 -91.572021 10.119799 0.974926 28863 4
181.744446 -90.560867 10.134174 0.973543 28863 4
182.577087 -89.546761 10.149000 0.972121 28863 4
183.412201 -88.529655 10.164267 0.970661 28863 4
184.249817 -87.509499 10.179981 0.969162 28863 4
185.090118 -86.486061 10.196157 0.967625 28863 4
185.933105 -85.459396 10.212784 0.966050 28863 4
186.778885 -84.429283 10.229866 0.964436 28863 4
187.627502 -83.395729 10.247417 0.962785 28863 4
188.479095 -82.358536 10.265430 0.961095 28863 4
189.333740 -81.317642 10.283924 0.959367 28863 4
190.191437 -80.273026 10.302883 0.957602 28863 4
191.052429 -79.224411 10.322323 0.955798 28863 4
191.916611 -78.171898 10.342247 0.953957 28863 4
192.784241 -77.115173 10.362656 0.952077 28863 4
193.655319 -76.054260 10.383566 0.950161 28863 4
194.529938 -74.989037 10.404964 0.948206 28863 4
195.408234 -73.919334 10.426870 0.946214 28863 4
196.290222 -72.845131 10.449280 0.944185 28863 4
197.176102 -71.766197 10.472202 0.942118 28863 4
198.065842 -70.682549 10.495640 0.940015 28863 4
198.959686 -69.593910 10.519598 0.937874 28863 4
199.857620 -68.500290 10.544104 0.935695 28863 4
200.759766 -67.401535 10.569111 0.933480 28863 4
201.666275 -66.297470 10.594675 0.931228 28863 4
202.577179 -65.188065 10.620787 0.928939 28863 4
203.492645 -64.073090 10.647449 0.926613 28863 4
204.412704 -62.952503 10.674648 0.924251 28863 4
205.337601 -61.826054 10.702442 0.921852 28863 4
206.267319 -60.693726 10.730782 0.919417 28863 4
207.201996 -59.555351 10.759691 0.916945 28863 4
208.141785 -58.410751 10.789219 0.914437 28863 4
209.086761 -57.259823 10.819319 0.911893 28863 4
210.037094 -56.102402 10.850018 0.909312 28863 4
210.992828 -54.938377 10.881330 0.906696 28863 4
211.954178 -53.767525 10.913250 0.904044 28863 4
212.921219 -52.589729 10.945793 0.901356 28863 4
213.894073 -51.404869 10.978968 0.898632 28863 4
214.872879 -50.212742 11.012779 0.895873 28863 4
215.857758 -49.013237 11.047241 0.893079 28863 4
216.848892 -47.806095 11.082354 0.890249 28863 4
217.846329 -46.591286 11.118134 0.887384 28863 4
218.850357 -45.368458 11.154593 0.884484 28863 4
219.860992 -44.137573 11.191730 0.881549 28863 4
176.996887 -34.375916 8.998510 0.346264 28859 0
174.609482 -32.773949 8.866537 0.591553 28859 0
173.332184 -31.406973 8.791506 0.596603 28859 0
172.350174 -30.110704 8.731903 0.751328 28859 0
171.593704 -28.867537 8.684221 0.755455 28859 0
170.859604 -27.640188 8.638113 0.852129 28859 0
170.377518 -26.463654 8.605145 0.855393 28859 0
169.899094 -25.296064 8.572773 0.858622 28859 0
169.424194 -24.137123 8.540979 0.861818 28859 0
169.090622 -23.005507 8.516705 0.921837 28859 0
168.791565 -21.884445 8.494537 0.924242 28859 0
168.494034 -20.769159 8.472824 0.926611 28859 0
168.198013 -19.659557 8.451557 0.928943 28859 0
168.025345 -18.568905 8.436842 0.965522 28859 0
167.861069 -17.482849 8.422905 0.967120 28859 0
167.697311 -16.400284 8.409348 0.968679 28859 0
167.534088 -15.321207 8.396166 0.970200 28859 0
167.438934 -14.251171 8.386732 0.990238 28859 0
167.386902 -13.186872 8.379812 0.991057 28859 0
167.334946 -12.124332 8.373226 0.991836 28859 0
167.283066 -11.063375 8.366982 0.992576 28859 0
167.233368 -10.004128 8.361183 0.999112 28859 0
167.285507 -8.951709 8.360809 0.999157 28859 0
167.337646 -7.899384 8.360769 0.999162 28859 0
167.389771 -6.846985 8.361053 0.999128 28859 0
167.441910 -5.794473 8.361673 0.999054 28859 0
167.535492 -4.742978 8.364695 0.991671 28859 0
167.695145 -3.692093 8.371338 0.990884 28859 0
167.855057 -2.639540 8.378325 0.990057 28859 0
168.015244 -1.585141 8.385658 0.989192 28859 0
168.175705 -0.528854 8.393337 0.988287 28859 0
168.450729 0.529725 8.407059 0.964388 28859 0
168.734818 1.591937 8.421570 0.962726 28859 0
169.019897 2.657819 8.436468 0.961027 28859 0
169.306015 3.727567 8.451756 0.959289 28859 0
169.728928 4.805037 8.474201 0.913141 28859 0
170.173904 5.889021 8.498104 0.910573 28859 0
170.621429 6.979177 8.522474 0.907969 28859 0
171.158447 8.079710 8.551672 0.827644 28859 0
171.838318 9.195347 8.588354 0.824109 28859 0
172.524033 10.320585 8.625704 0.820541 28859 0
173.457886 11.471758 8.675827 0.682831 28859 0
174.558044 12.647642 8.734659 0.678232 28859 0
176.304962 13.889456 8.826267 0.449314 28859 0
483.170105 41.123882 24.201202 0.976185 28867 2
483.116211 44.181507 24.211920 0.975752 28867 2
483.411194 47.276123 24.241142 0.936823 28867 2
483.985046 50.407269 24.285336 0.935118 28867 2
484.560760 53.550014 24.330631 0.933377 28867 2
485.505249 56.747360 24.395515 0.853389 28867 2
486.811523 60.006088 24.479595 0.850457 28867 2
488.126526 63.287361 24.565313 0.847491 28867 2
490.150879 66.686974 24.687786 0.730123 28867 2
492.433624 70.154816 24.824482 0.726102 28867 2
495.311584 73.746185 24.992470 0.577605 28867 2
499.069855 77.517303 25.206232 0.572707 28867 2
504.416870 81.600021 25.501677 0.399532 28867 2
513.484131 86.384369 25.987047 0.209615 28867 2
290.482239 144.743393 16.197445 0.308721 28875 2
284.332703 143.918579 15.904751 0.388942 28875 2
279.821198 143.852921 15.702685 0.547080 28875 2
276.358887 144.277679 15.559001 0.552132 28875 2
201.677811 106.908707 11.392069 0.188111 28873 2
196.862579 105.947632 11.157484 0.359108 28873 2
193.432938 105.676208 11.000565 0.364231 28873 2
190.097977 105.412064 10.848392 0.369340 28873 2
187.770416 105.670990 10.753269 0.525563 28873 2
185.495895 105.932541 10.660967 0.530115 28873 2
183.259460 106.189491 10.570616 0.534646 28873 2
181.130997 106.483414 10.486263 0.668886 28873 2
179.446426 107.017433 10.427507 0.672656 28873 2
177.780243 107.545403 10.369780 0.676400 28873 2
176.132233 108.067383 10.313095 0.680117 28873 2
174.501770 108.583580 10.257416 0.683810 28873 2
172.926636 109.118141 10.204952 0.788062 28873 2
171.637207 109.819878 10.169426 0.790815 28873 2
170.356476 110.516663 10.134520 0.793538 28873 2
169.084290 111.208549 10.100256 0.796231 28873 2
167.820419 111.895676 10.066605 0.798893 28873 2
166.564713 112.578148 10.033554 0.801525 28873 2
165.345184 113.275360 10.002819 0.869364 28873 2
164.334320 114.108032 9.984877 0.870926 28873 2
163.326782 114.937683 9.967396 0.872454 28873 2
162.322586 115.764336 9.950340 0.873949 28873 2
161.321640 116.588028 9.933735 0.875410 28873 2
160.323761 117.408943 9.917564 0.876837 28873 2
159.328979 118.227043 9.901829 0.878230 28873 2
158.425995 119.109344 9.892057 0.904849 28873 2
157.630264 120.070206 9.889328 0.905099 28873 2
156.834717 121.030502 9.886980 0.905313 28873 2
156.039368 121.990242 9.885029 0.905494 28873 2
155.244156 122.949509 9.883444 0.905639 28873 2
154.448990 123.908401 9.882240 0.905749 28873 2
153.653870 124.866936 9.881420 0.905824 28873 2
152.955444 125.904968 9.887251 0.889690 28873 2
152.344910 127.018166 9.899221 0.888614 28873 2
151.732681 128.133987 9.911625 0.887503 28873 2
151.118713 129.252594 9.924408 0.886358 28873 2
150.503006 130.373932 9.937632 0.885179 28873 2
149.885468 131.498169 9.951271 0.883966 28873 2
149.266083 132.625381 9.965330 0.882718 28873 2
148.794891 133.890900 9.989895 0.824759 28873 2
148.371002 135.207855 10.018335 0.822418 28873 2
147.944519 136.532257 10.047321 0.820045 28873 2
147.515381 137.864273 10.076870 0.817641 28873 2
147.083557 139.203918 10.106976 0.815205 28873 2
146.648941 140.551559 10.137651 0.812738 28873 2
146.348114 142.039825 10.178383 0.717233 28873 2
146.153625 143.647217 10.227516 0.713789 28873 2
145.957077 145.270096 10.277500 0.710318 28873 2
145.758392 146.908859 10.328375 0.706819 28873 2
145.557526 148.563751 10.380148 0.703294 28873 2
145.450668 150.334518 10.439739 0.576236 28873 2
145.598175 152.393372 10.518896 0.571898 28873 2
145.747681 154.483444 10.599707 0.567540 28873 2
145.899292 156.605804 10.682158 0.563159 28873 2
146.135132 158.850479 10.772375 0.411704 28873 2
146.914307 161.727112 10.904562 0.406712 28873 2
147.712585 164.675140 11.040472 0.401705 28873 2
148.920059 168.136887 11.209532 0.233625 28873 2
151.353958 173.065765 11.474455 0.228231 28873 2
191.479904 255.520706 15.935884 0.242124 28871 2
185.591354 250.935944 15.576811 0.424355 28871 2
181.686813 248.916245 15.380178 0.429780 28871 2
177.879288 246.946503 15.189043 0.435188 28871 2
174.912140 246.076050 15.067535 0.599370 28871 2
171.999313 245.229813 14.949184 0.604115 28871 2
169.131668 244.396500 14.833250 0.608837 28871 2
166.713699 244.170197 14.755585 0.747393 28871 2
164.328934 243.958221 14.680040 0.751240 28871 2
161.968155 243.748230 14.605789 0.755058 28871 2
159.674988 243.607300 14.536880 0.861597 28871 2
157.632706 243.822601 14.490261 0.864368 28871 2
155.603363 244.036346 14.444515 0.867106 28871 2
153.586548 244.248596 14.399643 0.869809 28871 2
151.582047 244.459396 14.355576 0.872479 28871 2
149.731796 244.901291 14.325974 0.939810 28871 2
147.953354 245.447952 14.303207 0.941304 28871 2
146.180283 245.992767 14.281126 0.942761 28871 2
144.412567 246.535782 14.259611 0.944182 28871 2
142.650055 247.077026 14.238729 0.945566 28871 2
141.029510 247.857254 14.232290 0.970210 28871 2
139.447693 248.703461 14.230259 0.970349 28871 2
137.866226 249.549286 14.228760 0.970452 28871 2
136.284882 250.394836 14.227821 0.970516 28871 2
134.703613 251.240204 14.227400 0.970543 28871 2
133.240494 252.308990 14.240219 0.951225 28871 2
131.820206 253.467438 14.258522 0.950004 28871 2
130.396149 254.628754 14.277428 0.948745 28871 2
128.968124 255.793076 14.296951 0.947450 28871 2
127.536110 256.960449 14.317064 0.946118 28871 2
126.233597 258.404663 14.353031 0.883838 28871 2
124.962067 259.934509 14.394054 0.881318 28871 2
123.683197 261.472900 14.435886 0.878764 28871 2
122.396637 263.020294 14.478529 0.876176 28871 2
121.149872 264.680298 14.527674 0.775186 28871 2
120.049164 266.695496 14.596542 0.771528 28871 2
118.937927 268.729553 14.666630 0.767841 28871 2
117.815788 270.783264 14.737976 0.764123 28871 2
116.769035 273.059204 14.821587 0.629359 28871 2
115.899597 275.811432 14.931133 0.624742 28871 2
115.017052 278.604614 15.042868 0.620101 28871 2
114.206223 281.649750 15.168182 0.458815 28871 2
113.754829 285.683350 15.346586 0.453482 28871 2
113.292526 289.812744 15.529840 0.448131 28871 2
113.832352 296.682648 15.859226 0.267767 28871 2
64.389145 277.505310 14.217640 0.077972 28869 2
60.464115 268.240906 13.723236 0.257900 28869 2
57.707966 263.735474 13.473900 0.424172 28869 2
55.403954 261.057861 13.319040 0.429104 28869 2
53.151787 258.440125 13.168165 0.434020 28869 2
51.080048 256.532715 13.054354 0.582663 28869 2
49.105206 254.977478 12.959240 0.586940 28869 2
47.158844 253.444305 12.865986 0.591194 28869 2
45.246849 251.971161 12.776499 0.715350 28869 2
43.453247 251.049164 12.715639 0.718774 28869 2
41.676586 250.135590 12.655842 0.722170 28869 2
39.916195 249.230103 12.597073 0.725539 28869 2
38.172142 248.332703 12.539333 0.728880 28869 2
36.477417 247.670959 12.494095 0.820906 28869 2
34.819389 247.187836 12.458426 0.823256 28869 2
33.170570 246.707123 12.423435 0.825575 28869 2
31.530916 246.228821 12.389118 0.827862 28869 2
29.900192 245.752853 12.355461 0.830117 28869 2
28.291716 245.396606 12.328365 0.885257 28869 2
26.712950 245.249695 12.312298 0.886412 28869 2
25.138145 245.102905 12.296747 0.887533 28869 2
23.567299 244.956238 12.281708 0.888620 28869 2
22.000050 244.809631 12.267178 0.889672 28869 2
20.436529 244.663147 12.253155 0.890691 28869 2
18.893066 244.730667 12.250347 0.904979 28869 2
17.355965 244.881104 12.252167 0.904845 28869 2
15.818448 245.031296 12.254463 0.904675 28869 2
14.280265 245.181320 12.257229 0.904471 28869 2
12.741346 245.331146 12.260471 0.904231 28869 2
11.201426 245.480835 12.264187 0.903958 28869 2
9.672043 245.922897 12.282991 0.876615 28869 2
8.138315 246.377106 12.302879 0.875198 28869 2
6.599468 246.832550 12.323303 0.873747 28869 2
5.055541 247.289230 12.344273 0.872263 28869 2
3.506262 247.747238 12.365789 0.870745 28869 2
1.952650 248.352966 12.395164 0.804302 28869 2
0.391792 249.163086 12.435230 0.801711 28869 2
-1.179157 249.978165 12.476034 0.799088 28869 2
-2.760393 250.798294 12.517580 0.796436 28869 2
-4.352560 251.623795 12.559902 0.793752 28869 2
-5.959576 252.634872 12.611988 0.691642 28869 2
-7.588213 253.925659 12.678562 0.688011 28869 2
-9.234280 255.229919 12.746332 0.684353 28869 2
-10.897984 256.547791 12.815315 0.680669 28869 2
-12.584812 257.981934 12.890657 0.548921 28869 2
-14.323586 260.012024 12.996334 0.544457 28869 2
-16.091232 262.075409 13.104271 0.539973 28869 2
-17.888439 264.172882 13.214512 0.535468 28869 2
-19.795456 267.376434 13.380726 0.380520 28869 2
-21.767216 270.861115 13.561699 0.375442 28869 2
-23.972641 276.512573 13.851944 0.211892 28869 2
169.913086 -229.737701 7.125977 0.853013 28861 4
170.935379 -228.105072 7.108536 0.855105 28861 4
171.952667 -226.480194 7.091473 0.857164 28861 4
172.965057 -224.862900 7.074760 0.859189 28861 4
173.972565 -223.253159 7.058411 0.861181 28861 4
174.975433 -221.650604 7.042400 0.863138 28861 4
175.973724 -220.055145 7.026718 0.865063 28861 4
176.967529 -218.466599 7.011383 0.866953 28861 4
177.956970 -216.884766 6.996407 0.868810 28861 4
178.942123 -215.309555 6.981758 0.870632 28861 4
179.923157 -213.740677 6.967472 0.872421 28861 4
180.900146 -212.178055 6.953472 0.874176 28861 4
181.873108 -210.621643 6.939804 0.875896 28861 4
182.842255 -209.071091 6.926464 0.877582 28861 4
183.807617 -207.526367 6.913452 0.879234 28861 4
184.769287 -205.987274 6.900753 0.880851 28861 4
185.727402 -204.453674 6.888393 0.882434 28861 4
186.682053 -202.925369 6.876308 0.883983 28861 4
187.633301 -201.402283 6.864548 0.885497 28861 4
188.581192 -199.884323 6.853104 0.886976 28861 4
189.525909 -198.371216 6.841953 0.888421 28861 4
190.467468 -196.862930 6.831123 0.889831 28861 4
191.406036 -195.359207 6.820591 0.891206 28861 4
192.341675 -193.859940 6.810341 0.892546 28861 4
193.274567 -192.364868 6.800385 0.893852 28861 4
194.204590 -190.874130 6.790752 0.895123 28861 4
195.131866 -189.387558 6.781387 0.896358 28861 4
196.056564 -187.904907 6.772301 0.897558 28861 4
196.978699 -186.426117 6.763535 0.898724 28861 4
197.898438 -184.950958 6.755032 0.899854 28861 4
198.815826 -183.479324 6.746803 0.900949 28861 4
199.730881 -182.011215 6.738884 0.902009 28861 4
200.643784 -180.546310 6.731239 0.903034 28861 4
201.554520 -179.084641 6.723877 0.904023 28861 4
202.463272 -177.625946 6.716805 0.904977 28861 4
203.369995 -176.170258 6.709991 0.905895 28861 4
204.274902 -174.717285 6.703445 0.906779 28861 4
205.177963 -173.267044 6.697166 0.907626 28861 4
206.079224 -171.819443 6.691181 0.908438 28861 4
206.978851 -170.374237 6.685501 0.909215 28861 4
207.876862 -168.931396 6.680054 0.909956 28861 4
208.773376 -167.490753 6.674866 0.910662 28861 4
209.668427 -166.052246 6.669937 0.911332 28861 4
210.562103 -164.615677 6.665329 0.911966 28861 4
211.454483 -163.180969 6.660946 0.912564 28861 4
212.345581 -161.748108 6.656841 0.913127 28861 4
213.235580 -160.316788 6.653015 0.913655 28861 4
214.124420 -158.887054 6.649445 0.914146 28861 4
215.012314 -157.458694 6.646099 0.914602 28861 4
215.899231 -156.031647 6.643074 0.915022 28861 4
216.785248 -154.605789 6.640285 0.915406 28861 4
217.670532 -153.180923 6.637749 0.915755 28861 4
218.554993 -151.757141 6.635483 0.916067 28861 4
219.438873 -150.334045 6.633484 0.916344 28861 4
220.322067 -148.911835 6.631737 0.916585 28861 4
221.204788 -147.490173 6.630264 0.916790 28861 4
222.087051 -146.069000 6.629036 0.916959 28861 4
261.254059 -169.485336 7.766151 0.012082 28861 4
248.053421 -150.056015 7.229837 0.142879 28863 4
238.604752 -142.298035 6.928217 0.149099 28863 4
229.912781 -135.161377 6.651028 0.155313 28863 4
221.888855 -128.573196 6.395384 0.161521 28863 4
214.459122 -122.472908 6.158911 0.167723 28863 4
207.558578 -116.807121 5.939526 0.173918 28863 4
201.132721 -111.531067 5.735455 0.180106 28863 4
195.133301 -106.605164 5.545135 0.186287 28863 4
189.518951 -101.995407 5.367237 0.192461 28863 4
184.253754 -97.672356 5.200659 0.198627 28863 4
179.305084 -93.609161 5.044260 0.204785 28863 4
180.086319 -92.580391 5.049747 0.977182 28863 4
180.914246 -91.572029 5.056719 0.975836 28863 4
181.744476 -90.560883 5.063904 0.974451 28863 4
182.577118 -89.546783 5.071310 0.973028 28863 4
183.412231 -88.529663 5.078939 0.971567 28863 4
184.249847 -87.509514 5.086796 0.970067 28863 4
185.090149 -86.486069 5.094873 0.968528 28863 4
185.933121 -85.459396 5.103182 0.966951 28863 4
186.778900 -84.429291 5.111715 0.965336 28863 4
187.627518 -83.395737 5.120487 0.963683 28863 4
188.479111 -82.358543 5.129490 0.961992 28863 4
189.333755 -81.317657 5.138725 0.960263 28863 4
190.191452 -80.273033 5.148201 0.958495 28863 4
191.052429 -79.224419 5.157917 0.956690 28863 4
191.916626 -78.171883 5.167873 0.954847 28863 4
192.784256 -77.115173 5.178072 0.952966 28863 4
193.655350 -76.054245 5.188519 0.951047 28863 4
194.529968 -74.989037 5.199207 0.949091 28863 4
195.408249 -73.919342 5.210165 0.947098 28863 4
196.290222 -72.845154 5.221361 0.945066 28863 4
197.176117 -71.766197 5.232807 0.942998 28863 4
198.065857 -70.682556 5.244518 0.940892 28863 4
198.959717 -69.593918 5.256489 0.938749 28863 4
199.857635 -68.500290 5.268747 0.936568 28863 4
200.759796 -67.401527 5.281246 0.934351 28863 4
201.666290 -66.297485 5.294003 0.932097 28863 4
202.577179 -65.188080 5.307053 0.929806 28863 4
203.492661 -64.073090 5.320381 0.927478 28863 4
204.412720 -62.952515 5.333981 0.925113 28863 4
205.337616 -61.826073 5.347847 0.922712 28863 4
206.267334 -60.693722 5.362019 0.920275 28863 4
207.202011 -59.555351 5.376471 0.917801 28863 4
208.141815 -58.410736 5.391216 0.915290 28863 4
209.086777 -57.259850 5.406261 0.912744 28863 4
210.037125 -56.102386 5.421598 0.910161 28863 4
210.992874 -54.938362 5.437246 0.907542 28863 4
211.954208 -53.767509 5.453194 0.904888 28863 4
212.921265 -52.589714 5.469456 0.902197 28863 4
213.894073 -51.404888 5.486031 0.899471 28863 4
214.872910 -50.212734 5.502926 0.896709 28863 4
215.857788 -49.013229 5.520144 0.893912 28863 4
216.848907 -47.806114 5.537691 0.891080 28863 4
217.846375 -46.591270 5.555571 0.888212 28863 4
218.850357 -45.368484 5.573790 0.885309 28863 4
219.861008 -44.137581 5.592348 0.882371 28863 4
177.064575 -34.389061 4.498201 0.346455 28859 0
174.661743 -32.783772 4.431774 0.591928 28859 0
173.383621 -31.416294 4.394283 0.596983 28859 0
172.396515 -30.118799 4.364380 0.751827 28859 0
171.639587 -28.875261 4.340534 0.755958 28859 0
170.902817 -27.647182 4.317413 0.852709 28859 0
170.420441 -26.470316 4.300941 0.855975 28859 0
169.941727 -25.302414 4.284761 0.859208 28859 0
169.466568 -24.143158 4.268867 0.862407 28859 0
169.131454 -23.011065 4.256702 0.922474 28859 0
168.832199 -21.889713 4.245613 0.924882 28859 0
168.534500 -20.774143 4.234760 0.927253 28859 0
168.238312 -19.664268 4.224125 0.929587 28859 0
168.064621 -18.573246 4.216745 0.966197 28859 0
167.900238 -17.486929 4.209778 0.967796 28859 0
167.736389 -16.404108 4.203001 0.969357 28859 0
167.573059 -15.324773 4.196411 0.970880 28859 0
167.477173 -14.254425 4.191685 0.990936 28859 0
167.425095 -13.189880 4.188221 0.991756 28859 0
167.373093 -12.127096 4.184929 0.992536 28859 0
167.321182 -11.065895 4.181807 0.993276 28859 0
167.270920 -10.006376 4.178894 0.999821 28859 0
167.323074 -8.953720 4.178707 0.999865 28859 0
167.375214 -7.901159 4.178686 0.999870 28859 0
167.427368 -6.848522 4.178831 0.999836 28859 0
167.479523 -5.795774 4.179142 0.999762 28859 0
167.572708 -4.744032 4.180639 0.992376 28859 0
167.732437 -3.692914 4.183962 0.991588 28859 0
167.892410 -2.640127 4.187454 0.990761 28859 0
168.052658 -1.585495 4.191120 0.989895 28859 0
168.213196 -0.528971 4.194956 0.988989 28859 0
168.487976 0.529842 4.201809 0.965075 28859 0
168.772202 1.592291 4.209064 0.963412 28859 0
169.057404 2.658408 4.216515 0.961710 28859 0
169.343643 3.728395 4.224150 0.959971 28859 0
169.766434 4.806098 4.235367 0.913791 28859 0
170.211624 5.890326 4.247314 0.911221 28859 0
170.659348 6.980730 4.259499 0.908615 28859 0
171.196350 8.081501 4.274090 0.828233 28859 0
171.876526 9.197390 4.292429 0.824695 28859 0
172.562561 10.322893 4.311096 0.821123 28859 0
173.496613 11.474319 4.336147 0.683316 28859 0
174.597275 12.650490 4.365559 0.678712 28859 0
176.344833 13.892593 4.411350 0.449632 28859 0
488.278961 41.558739 12.220844 0.909035 28867 2
488.288727 44.654484 12.227886 0.872505 28867 2
488.822113 47.805271 12.248533 0.871035 28867 2
489.357056 50.966724 12.269722 0.869530 28867 2
490.156403 54.168449 12.298065 0.793558 28867 2
491.448456 57.442070 12.339302 0.790906 28867 2
492.748993 60.737915 12.381336 0.788223 28867 2
494.802429 64.152946 12.442789 0.676306 28867 2
497.109741 67.633789 12.511267 0.672605 28867 2
500.283600 71.273201 12.602177 0.530725 28867 2
504.146973 75.061676 12.711117 0.526175 28867 2
510.549164 79.300323 12.884871 0.360502 28867 2
293.956451 148.789764 8.216309 0.209672 28875 2
286.030884 147.045258 8.020494 0.385754 28875 2
281.627625 147.028336 7.922871 0.437074 28875 2
277.631836 147.171661 7.836287 0.441900 28875 2
274.147491 147.540833 7.763988 0.607566 28875 2
201.202682 109.920959 5.717630 0.187458 28873 2
196.319046 108.861755 5.598190 0.357970 28873 2
192.882278 108.547775 5.519533 0.363070 28873 2
189.681046 108.322601 5.447317 0.518902 28873 2
187.358414 108.564583 5.400126 0.523437 28873 2
185.075500 108.802322 5.353922 0.527952 28873 2
182.830994 109.035942 5.308733 0.532447 28873 2
180.906799 109.436737 5.272758 0.665331 28873 2
179.212570 109.957336 5.243435 0.669052 28873 2
177.536758 110.472153 5.214630 0.672747 28873 2
175.879242 110.981239 5.186344 0.676417 28873 2
174.239288 111.484818 5.158560 0.680060 28873 2
172.905182 112.170090 5.139839 0.692412 28873 2
171.610474 112.870010 5.122355 0.694776 28873 2
170.324280 113.565140 5.105183 0.697113 28873 2
169.046509 114.255539 5.088324 0.699423 28873 2
167.776978 114.941307 5.071768 0.701706 28873 2
166.592346 115.675972 5.057852 0.760366 28873 2
165.569473 116.515945 5.048943 0.761707 28873 2
164.550018 117.352905 5.040268 0.763019 28873 2
163.533951 118.186874 5.031815 0.764301 28873 2
162.521027 119.018074 5.023581 0.765553 28873 2
161.511322 119.846413 5.015568 0.766776 28873 2
160.532532 120.693054 5.008648 0.790152 28873 2
159.726120 121.666649 5.007261 0.790370 28873 2
158.919952 122.639694 5.006073 0.790558 28873 2
158.114014 123.612206 5.005077 0.790715 28873 2
157.308273 124.584213 5.004276 0.790842 28873 2
156.502594 125.555939 5.003666 0.790938 28873 2
155.696991 126.527290 5.003254 0.791003 28873 2
155.025482 127.608917 5.007372 0.776837 28873 2
154.407913 128.738220 5.013477 0.775891 28873 2
153.788666 129.870239 5.019794 0.774914 28873 2
153.167725 131.005066 5.026321 0.773908 28873 2
152.544998 132.142792 5.033062 0.772872 28873 2
151.920456 133.283493 5.040016 0.771806 28873 2
151.381073 134.504578 5.050087 0.721845 28873 2
150.956390 135.835861 5.064322 0.719816 28873 2
150.529190 137.174545 5.078833 0.717759 28873 2
150.099380 138.520859 5.093624 0.715674 28873 2
149.666901 139.875015 5.108700 0.713562 28873 2
149.231750 141.237000 5.124067 0.711423 28873 2
148.960785 142.767303 5.145494 0.628392 28873 2
148.770416 144.390823 5.170185 0.625391 28873 2
148.583649 146.035568 5.195503 0.702771 28873 2
148.395889 147.697433 5.221327 0.699296 28873 2
148.206131 149.375946 5.247597 0.695794 28873 2
148.287506 151.350159 5.284063 0.569406 28873 2
148.458817 153.443634 5.324467 0.565087 28873 2
148.632690 155.569504 5.365671 0.560745 28873 2
148.809128 157.728363 5.407772 0.556383 28873 2
149.566635 160.542175 5.471869 0.405378 28873 2
150.401886 163.488495 5.539959 0.400397 28873 2
151.621643 166.909058 5.623449 0.232920 28873 2
154.130371 171.829941 5.756426 0.227538 28873 2
187.914276 257.447998 7.948742 0.232676 28871 2
182.671753 253.599823 7.794230 0.400123 28871 2
178.848618 251.614090 7.698469 0.405100 28871 2
175.379532 250.049133 7.616703 0.556056 28871 2
172.451599 249.193909 7.557434 0.560415 28871 2
169.568665 248.351624 7.499416 0.564752 28871 2
166.965134 247.871826 7.453083 0.691864 28871 2
164.564560 247.655609 7.415285 0.695388 28871 2
162.188065 247.441376 7.378197 0.698885 28871 2
159.854538 247.259186 7.342663 0.796290 28871 2
157.795486 247.474396 7.319427 0.798817 28871 2
155.749344 247.688126 7.296616 0.801312 28871 2
153.715622 247.900391 7.274246 0.803777 28871 2
151.694305 248.111206 7.252293 0.806210 28871 2
149.889465 248.659851 7.240648 0.867308 28871 2
148.092758 249.211105 7.229431 0.868653 28871 2
146.301544 249.760529 7.218513 0.869965 28871 2
144.515533 250.308197 7.207933 0.871242 28871 2
142.827621 251.017365 7.202347 0.893990 28871 2
141.225571 251.874313 7.201283 0.894119 28871 2
139.623932 252.730865 7.200525 0.894213 28871 2
138.022400 253.587173 7.200066 0.894273 28871 2
136.420975 254.443268 7.199867 0.894297 28871 2
134.972382 255.588638 7.208109 0.876466 28871 2
133.533981 256.762726 7.217403 0.875338 28871 2
132.091736 257.939758 7.226976 0.874177 28871 2
130.645493 259.119843 7.236885 0.872981 28871 2
129.268951 260.451752 7.251228 0.816556 28871 2
127.987869 261.995636 7.271667 0.814262 28871 2
126.699356 263.548218 7.292490 0.811936 28871 2
125.403412 265.109528 7.313721 0.809578 28871 2
124.156166 266.801422 7.338722 0.717316 28871 2
123.050125 268.831848 7.373131 0.713968 28871 2
121.933479 270.881439 7.408157 0.710592 28871 2
120.806046 272.950470 7.443817 0.707188 28871 2
119.858368 275.477814 7.492020 0.583597 28871 2
118.987717 278.247467 7.546858 0.579358 28871 2
118.104187 281.057617 7.602779 0.575096 28871 2
117.574661 284.799896 7.683830 0.426840 28871 2
117.127579 288.854218 7.773209 0.421933 28871 2
117.420090 294.888367 7.915573 0.256266 28871 2
61.144108 279.439423 7.133539 0.081458 28869 2
57.315994 270.067627 6.885023 0.257101 28869 2
54.625847 265.607452 6.762409 0.422702 28869 2
52.347038 262.895752 6.684868 0.427606 28869 2
50.119671 260.245056 6.609324 0.432494 28869 2
48.111889 258.566589 6.558891 0.580023 28869 2
46.147614 256.987274 6.511341 0.584259 28869 2
44.211597 255.430511 6.464710 0.588472 28869 2
42.363625 254.259064 6.428188 0.711122 28869 2
40.571098 253.319244 6.397844 0.714494 28869 2
38.795517 252.388153 6.368038 0.717838 28869 2
37.036278 251.465485 6.338764 0.721154 28869 2
35.321869 250.755142 6.315132 0.812302 28869 2
33.647861 250.257339 6.297142 0.814623 28869 2
31.983393 249.762238 6.279501 0.816912 28869 2
30.328079 249.269730 6.262199 0.819169 28869 2
28.681757 248.779755 6.245230 0.821394 28869 2
27.070625 248.533493 6.234652 0.875517 28869 2
25.474335 248.380539 6.226673 0.876639 28869 2
23.882030 248.227844 6.218956 0.877726 28869 2
22.293510 248.075363 6.211498 0.878780 28869 2
20.708839 247.923141 6.204308 0.879799 28869 2
19.140779 247.939407 6.201580 0.894101 28869 2
17.583515 248.092285 6.202511 0.893966 28869 2
16.025885 248.245071 6.203690 0.893797 28869 2
14.467546 248.397797 6.205109 0.893592 28869 2
12.908541 248.550446 6.206770 0.893353 28869 2
11.352361 248.788544 6.210812 0.867095 28869 2
9.803043 249.252991 6.220743 0.865710 28869 2
8.248699 249.718826 6.230949 0.864292 28869 2
6.689134 250.186081 6.241440 0.862840 28869 2
5.124346 250.654785 6.252205 0.861354 28869 2
3.555071 251.193909 6.264967 0.795893 28869 2
1.981503 252.022797 6.285206 0.793330 28869 2
0.397600 252.856979 6.305824 0.790736 28869 2
-1.196697 253.696472 6.326820 0.788112 28869 2
-2.801605 254.541412 6.348207 0.785457 28869 2
-4.422386 255.664017 6.376770 0.684174 28869 2
-6.062244 256.986542 6.410582 0.680565 28869 2
-7.719624 258.323029 6.445002 0.676930 28869 2
-9.395065 259.673920 6.480055 0.673269 28869 2
-11.109131 261.519104 6.527718 0.542157 28869 2
-12.859180 263.606293 6.581701 0.537710 28869 2
-14.638474 265.728119 6.636848 0.533243 28869 2
-16.500038 268.733643 6.714375 0.379274 28869 2
-18.435474 272.252258 6.805050 0.374220 28869 2
-20.574455 277.899139 6.949303 0.204852 28869 2
173.059509 -230.939590 0.000015 0.844872 28861 4
174.084213 -229.287720 0.000015 0.846931 28861 4
175.104050 -227.643723 0.000019 0.848957 28861 4
176.118973 -226.007645 0.000008 0.850949 28861 4
177.129272 -224.378998 0.000008 0.852908 28861 4
178.134964 -222.757782 0.000031 0.854833 28861 4
179.136139 -221.143829 0.000023 0.856724 28861 4
180.133026 -219.536835 0.000011 0.858581 28861 4
181.125580 -217.936798 0.000031 0.860404 28861 4
182.114044 -216.343353 0.000008 0.862194 28861 4
183.098450 -214.756485 0.000023 0.863949 28861 4
184.078827 -213.176056 0.000011 0.865669 28861 4
185.055450 -211.601715 0.000019 0.867356 28861 4
186.028214 -210.033585 0.000034 0.869009 28861 4
186.997406 -208.471237 0.000008 0.870627 28861 4
187.962982 -206.914658 0.000023 0.872210 28861 4
188.925156 -205.363663 -0.000008 0.873759 28861 4
189.883896 -203.818100 0.000008 0.875274 28861 4
190.839355 -202.277893 0.000011 0.876753 28861 4
191.791656 -200.742752 0.000004 0.878198 28861 4
192.740814 -199.212646 0.000015 0.879609 28861 4
193.687057 -197.687302 0.000004 0.880984 28861 4
194.630356 -196.166672 0.000000 0.882325 28861 4
195.570892 -194.650482 0.000004 0.883631 28861 4
196.508652 -193.138763 0.000011 0.884902 28861 4
197.443741 -191.631393 -0.000015 0.886138 28861 4
198.376236 -190.128159 0.000008 0.887339 28861 4
199.306229 -188.628998 -0.000004 0.888504 28861 4
200.233826 -187.133652 0.000019 0.889635 28861 4
201.159180 -185.641968 0.000000 0.890731 28861 4
202.082230 -184.153976 0.000004 0.891791 28861 4
203.003174 -182.669373 0.000008 0.892816 28861 4
203.921982 -181.188232 0.000000 0.893805 28861 4
204.838898 -179.710144 0.000008 0.894759 28861 4
205.753784 -178.235291 0.000023 0.895678 28861 4
206.666962 -176.763229 0.000000 0.896562 28861 4
207.578308 -175.294144 -0.000015 0.897410 28861 4
208.487946 -173.827759 0.000000 0.898222 28861 4
209.396011 -172.363922 -0.000004 0.898999 28861 4
210.302490 -170.902634 0.000015 0.899740 28861 4
211.207581 -169.443604 -0.000015 0.900446 28861 4
212.111221 -167.986908 0.000000 0.901116 28861 4
213.013611 -166.532242 -0.000023 0.901751 28861 4
213.914734 -165.079590 0.000015 0.902349 28861 4
214.814667 -163.628845 0.000004 0.902913 28861 4
215.713562 -162.179810 0.000015 0.903440 28861 4
216.611420 -160.732452 0.000008 0.903932 28861 4
217.508331 -159.286591 0.000008 0.904387 28861 4
218.404388 -157.842117 0.000000 0.904808 28861 4
219.299652 -156.398926 -0.000011 0.905192 28861 4
220.194183 -154.956879 0.000015 0.905541 28861 4
221.088043 -153.515945 0.000011 0.905853 28861 4
221.981369 -152.075897 0.000000 0.906130 28861 4
222.874115 -150.636749 0.000015 0.906371 28861 4
223.766495 -149.198212 0.000008 0.906576 28861 4
224.658463 -147.760300 0.000023 0.906746 28861 4
248.053558 -150.056137 0.000000 0.142923 28863 4
238.604736 -142.298035 -0.000046 0.149145 28863 4
229.912933 -135.161499 -0.000015 0.155361 28863 4
221.888885 -128.573242 -0.000019 0.161571 28863 4
214.459091 -122.472900 0.000004 0.167775 28863 4
207.558487 -116.807053 0.000000 0.173972 28863 4
201.132690 -111.531059 0.000011 0.180162 28863 4
195.133194 -106.605087 -0.000004 0.186345 28863 4
189.518921 -101.995415 0.000008 0.192521 28863 4
184.253662 -97.672287 -0.000021 0.198689 28863 4
179.305069 -93.609169 0.000010 0.204849 28863 4
180.086334 -92.580406 0.000000 0.977486 28863 4
180.914261 -91.572037 0.000002 0.976139 28863 4
181.744476 -90.560898 0.000004 0.974754 28863 4
182.577118 -89.546791 0.000004 0.973331 28863 4
183.412231 -88.529678 0.000000 0.971869 28863 4
184.249847 -87.509521 0.000000 0.970368 28863 4
185.090149 -86.486084 0.000000 0.968829 28863 4
185.933105 -85.459427 0.000002 0.967252 28863 4
186.778900 -84.429306 0.000004 0.965636 28863 4
187.627533 -83.395737 0.000000 0.963983 28863 4
188.479126 -82.358559 0.000000 0.962291 28863 4
189.333755 -81.317673 -0.000002 0.960561 28863 4
190.191467 -80.273033 0.000000 0.958793 28863 4
191.052444 -79.224434 -0.000004 0.956987 28863 4
191.916656 -78.171898 0.000004 0.955144 28863 4
192.784256 -77.115204 -0.000008 0.953262 28863 4
193.655365 -76.054268 -0.000004 0.951343 28863 4
194.529968 -74.989052 -0.000002 0.949386 28863 4
195.408264 -73.919342 0.000006 0.947392 28863 4
196.290253 -72.845154 -0.000002 0.945360 28863 4
197.176132 -71.766212 -0.000004 0.943291 28863 4
198.065872 -70.682571 -0.000004 0.941185 28863 4
198.959717 -69.593925 -0.000004 0.939041 28863 4
199.857635 -68.500313 0.000000 0.936860 28863 4
200.759796 -67.401543 0.000015 0.934642 28863 4
201.666306 -66.297485 0.000000 0.932387 28863 4
202.577194 -65.188095 -0.000004 0.930095 28863 4
203.492676 -64.073090 0.000002 0.927766 28863 4
204.412750 -62.952507 0.000004 0.925401 28863 4
205.337616 -61.826080 -0.000006 0.922999 28863 4
206.267349 -60.693741 -0.000002 0.920561 28863 4
207.202026 -59.555374 -0.000004 0.918086 28863 4
208.141815 -58.410759 0.000008 0.915575 28863 4
209.086792 -57.259857 -0.000002 0.913027 28863 4
210.037140 -56.102402 -0.000004 0.910444 28863 4
210.992889 -54.938362 0.000015 0.907824 28863 4
211.954224 -53.767525 0.000000 0.905169 28863 4
212.921265 -52.589733 0.000004 0.902478 28863 4
213.894089 -51.404888 -0.000002 0.899751 28863 4
214.872925 -50.212742 0.000006 0.896988 28863 4
215.857788 -49.013248 0.000004 0.894190 28863 4
216.848938 -47.806091 -0.000002 0.891357 28863 4
217.846390 -46.591270 0.000000 0.888488 28863 4
218.850372 -45.368484 0.000000 0.885584 28863 4
219.861023 -44.137589 -0.000002 0.882645 28863 4
177.132233 -34.402199 0.000010 0.346430 28859 0
174.713974 -32.793571 -0.000036 0.591935 28859 0
173.435013 -31.425611 -0.000008 0.596992 28859 0
172.442810 -30.126883 -0.000006 0.751859 28859 0
171.685425 -28.882971 -0.000011 0.755991 28859 0
170.945999 -27.654167 -0.000010 0.852758 28859 0
170.463333 -26.476980 -0.000040 0.856026 28859 0
169.984344 -25.308758 -0.000011 0.859260 28859 0
169.508911 -24.149195 -0.000008 0.862460 28859 0
169.172241 -23.016615 -0.000011 0.922539 28859 0
168.872818 -21.894978 -0.000013 0.924947 28859 0
168.574936 -20.779131 -0.000010 0.927319 28859 0
168.278580 -19.668980 -0.000013 0.929653 28859 0
168.103867 -18.577587 -0.000011 0.966272 28859 0
167.939392 -17.491009 -0.000010 0.967872 28859 0
167.775436 -16.407927 -0.000011 0.969433 28859 0
167.612000 -15.328335 -0.000010 0.970956 28859 0
167.515396 -14.257677 -0.000010 0.991018 28859 0
167.463257 -13.192888 -0.000011 0.991838 28859 0
167.411224 -12.129862 -0.000010 0.992618 28859 0
167.359268 -11.068413 -0.000010 0.993359 28859 0
167.308441 -10.008622 -0.000013 0.999907 28859 0
167.360611 -8.955729 -0.000008 0.999952 28859 0
167.412766 -7.902933 -0.000010 0.999957 28859 0
167.464935 -6.850060 -0.000011 0.999922 28859 0
167.517105 -5.797073 -0.000010 0.999848 28859 0
167.609909 -4.745085 -0.000010 0.992465 28859 0
167.769684 -3.693736 -0.000011 0.991676 28859 0
167.929718 -2.640715 -0.000011 0.990849 28859 0
168.090042 -1.585847 -0.000010 0.989982 28859 0
168.250656 -0.529089 -0.000010 0.989076 28859 0
168.525192 0.529961 -0.000011 0.965162 28859 0
168.809540 1.592643 -0.000010 0.963498 28859 0
169.094879 2.658999 -0.000008 0.961796 28859 0
169.381256 3.729224 -0.000008 0.960056 28859 0
169.803925 4.807160 -0.000011 0.913874 28859 0
170.249313 5.891630 -0.000008 0.911303 28859 0
170.697250 6.982283 -0.000010 0.908695 28859 0
171.234207 8.083288 -0.000010 0.828308 28859 0
171.914703 9.199430 -0.000013 0.824768 28859 0
172.601044 10.325197 -0.000006 0.821195 28859 0
173.535294 11.476877 -0.000023 0.683376 28859 0
174.636475 12.653328 -0.000027 0.678771 28859 0
176.384659 13.895733 0.000011 0.449670 28859 0
499.142426 42.483360 0.000000 0.637848 28867 2
499.560455 45.685291 0.000004 0.636961 28867 2
499.979706 48.896530 -0.000023 0.636048 28867 2
501.145569 52.194511 -0.000011 0.575577 28867 2
502.412872 55.522911 -0.000008 0.573738 28867 2
504.560364 58.974602 -0.000015 0.485025 28867 2
507.013397 62.496212 -0.000015 0.372617 28867 2
511.195770 66.278366 -0.000023 0.369274 28867 2
518.037903 70.481133 -0.000008 0.237266 28867 2
300.169922 156.708710 -0.000088 0.054540 28875 2
287.523407 152.415192 -0.000006 0.262931 28875 2
281.887238 151.706238 0.000002 0.450282 28875 2
278.339752 152.062439 0.000008 0.454468 28875 2
274.856903 152.412140 -0.000002 0.458637 28875 2
271.486786 152.783813 -0.000017 0.626554 28875 2
200.145493 114.298630 -0.000008 0.168903 28873 2
195.393387 113.220444 0.000011 0.317638 28873 2
191.994888 112.870102 -0.000004 0.322076 28873 2
189.059967 112.750732 -0.000008 0.457363 28873 2
186.744186 112.967987 -0.000004 0.461289 28873 2
184.467484 113.181564 -0.000008 0.465196 28873 2
182.332657 113.456360 0.000000 0.580487 28873 2
180.613846 113.968796 0.000015 0.583706 28873 2
178.913757 114.475677 0.000000 0.586903 28873 2
177.232010 114.977081 -0.000004 0.590076 28873 2
175.589828 115.487320 -0.000008 0.679241 28873 2
174.260284 116.189529 -0.000008 0.681579 28873 2
172.939804 116.886955 -0.000015 0.683889 28873 2
171.628143 117.579735 -0.000023 0.686173 28873 2
170.325180 118.267883 -0.000004 0.688430 28873 2
169.063354 118.974701 -0.000023 0.746198 28873 2
168.016296 119.824966 -0.000004 0.747510 28873 2
166.972900 120.672241 -0.000004 0.748792 28873 2
165.932983 121.516731 -0.000008 0.750045 28873 2
164.896561 122.358353 -0.000004 0.751268 28873 2
163.863403 123.197327 -0.000004 0.752462 28873 2
162.971283 124.138603 0.000004 0.774873 28873 2
162.147980 125.130783 0.000008 0.775061 28873 2
161.325012 126.122551 0.000000 0.775218 28873 2
160.502411 127.113892 -0.000004 0.775344 28873 2
159.679977 128.105011 -0.000004 0.775441 28873 2
158.857742 129.095901 -0.000008 0.775506 28873 2
158.230789 130.247345 0.000008 0.761337 28873 2
157.604416 131.403320 -0.000004 0.760391 28873 2
156.976440 132.562256 0.000000 0.759414 28873 2
156.346832 133.724213 -0.000004 0.758407 28873 2
155.715530 134.889297 -0.000004 0.757371 28873 2
155.176666 136.140259 -0.000004 0.708330 28873 2
154.754654 137.502090 -0.000008 0.706328 28873 2
154.330231 138.871735 -0.000015 0.704299 28873 2
153.903320 140.249313 0.000000 0.702241 28873 2
153.473877 141.635086 -0.000004 0.700156 28873 2
153.134781 143.116043 0.000019 0.618777 28873 2
152.961731 144.767151 0.000008 0.615824 28873 2
152.786987 146.434433 -0.000004 0.612846 28873 2
152.610535 148.117889 -0.000004 0.609844 28873 2
152.434006 149.819946 -0.000023 0.501038 28873 2
152.625839 151.907547 0.000019 0.497305 28873 2
152.820602 154.026855 0.000019 0.493552 28873 2
153.018402 156.178741 -0.000004 0.489779 28873 2
153.591080 158.748260 -0.000023 0.358863 28873 2
154.453400 161.661926 -0.000004 0.354533 28873 2
155.611191 164.938141 0.000034 0.208610 28873 2
158.133972 169.738342 -0.000008 0.203909 28873 2
182.770859 260.587433 0.000000 0.208021 28871 2
178.274261 257.607666 0.000000 0.353911 28871 2
174.517380 255.599579 0.000000 0.358237 28871 2
171.524796 254.641006 0.000000 0.489106 28871 2
168.621033 253.760178 0.000000 0.492873 28871 2
165.980469 253.227203 0.000011 0.603026 28871 2
163.558716 252.988647 0.000034 0.606071 28871 2
161.161057 252.752533 0.000000 0.609092 28871 2
158.928299 252.743713 0.000019 0.692911 28871 2
156.845993 252.948822 0.000004 0.695073 28871 2
154.776596 253.152649 0.000000 0.697209 28871 2
152.719635 253.355240 0.000000 0.699316 28871 2
150.885010 253.910004 0.000004 0.752005 28871 2
149.056976 254.464523 0.000015 0.753156 28871 2
147.234406 255.017410 0.000000 0.754277 28871 2
145.445999 255.619141 0.000008 0.774239 28871 2
143.814316 256.491302 0.000011 0.774352 28871 2
142.183029 257.363251 -0.000004 0.774435 28871 2
140.552109 258.234985 0.000000 0.774487 28871 2
138.955536 259.170593 0.000015 0.759820 28871 2
137.496368 260.368103 0.000008 0.758860 28871 2
136.033401 261.568726 0.000008 0.757871 28871 2
134.566589 262.772522 0.000000 0.756852 28871 2
133.156021 264.099304 0.000004 0.708272 28871 2
131.861938 265.676147 0.000000 0.706287 28871 2
130.560486 267.261963 0.000000 0.704274 28871 2
129.251495 268.856964 0.000000 0.702233 28871 2
128.098572 270.807343 -0.000008 0.622114 28871 2
126.987595 272.885864 -0.000027 0.619200 28871 2
125.866089 274.983978 0.000000 0.616262 28871 2
124.927132 277.532104 -0.000042 0.509237 28871 2
124.075851 280.338318 0.000000 0.505557 28871 2
123.291351 283.368073 0.000023 0.377126 28871 2
122.895645 287.385956 0.000000 0.372863 28871 2
122.875870 292.413025 -0.000038 0.228612 28871 2
125.089188 303.002228 0.000000 0.075006 28871 2
55.621338 279.340149 -0.000034 0.075765 28869 2
52.295990 271.545502 0.000000 0.229341 28869 2
49.814957 267.719421 0.000000 0.373532 28869 2
47.587395 265.005157 0.000000 0.377792 28869 2
45.490528 262.819397 0.000008 0.506134 28869 2
43.520527 261.202667 -0.000004 0.509811 28869 2
41.578430 259.608826 0.000000 0.513469 28869 2
39.716316 258.378479 -0.000004 0.619658 28869 2
37.912422 257.414276 0.000000 0.622568 28869 2
36.125343 256.459045 0.000000 0.625454 28869 2
34.354485 255.512512 -0.000004 0.628314 28869 2
32.651932 254.982925 0.000000 0.706600 28869 2
30.960762 254.469910 0.000000 0.708580 28869 2
29.278936 253.959747 0.000000 0.710533 28869 2
27.606394 253.452393 0.000000 0.712457 28869 2
25.971296 253.226288 0.000004 0.759012 28869 2
24.347549 253.066376 0.000004 0.759967 28869 2
22.727695 252.906830 -0.000004 0.760891 28869 2
21.111763 252.747681 0.000000 0.761786 28869 2
19.507225 252.686707 0.000004 0.774336 28869 2
17.920223 252.843018 0.000000 0.774218 28869 2
16.332806 252.999374 0.000000 0.774069 28869 2
14.744671 253.155792 0.000000 0.773890 28869 2
13.155846 253.312271 0.000000 0.773680 28869 2
11.576454 253.700256 0.000000 0.750637 28869 2
9.996769 254.179443 0.000000 0.749422 28869 2
8.411922 254.660217 0.000000 0.748178 28869 2
6.821609 255.142639 0.000000 0.746903 28869 2
5.228186 255.735580 0.000000 0.690376 28869 2
3.631397 256.589081 0.000000 0.688154 28869 2
2.024158 257.448151 0.000000 0.685906 28869 2
0.406178 258.312988 0.000000 0.683629 28869 2
-1.223211 259.317291 0.000000 0.596379 28869 2
-2.869040 260.667999 0.000000 0.593260 28869 2
-4.532591 262.033234 0.000000 0.590116 28869 2
-6.213827 263.412994 0.000000 0.586950 28869 2
-7.931854 265.424866 0.000004 0.473241 28869 2
-9.680250 267.555298 0.000000 0.469375 28869 2
-11.469353 269.998962 0.000004 0.335783 28869 2
-13.341923 273.502289 0.000000 0.331386 28869 2
-15.336636 278.401489 0.000011 0.183720 28869 2
176.269318 -232.165726 -7.269516 0.836173 28861 4
177.296631 -230.494186 -7.251949 0.838198 28861 4
178.319061 -228.830872 -7.234760 0.840189 28861 4
179.336807 -227.175400 -7.217926 0.842147 28861 4
180.349976 -225.527649 -7.201469 0.844072 28861 4
181.358643 -223.887451 -7.185371 0.845962 28861 4
182.362976 -222.254593 -7.169640 0.847819 28861 4
183.363022 -220.628937 -7.154274 0.849641 28861 4
184.358963 -219.010223 -7.139221 0.851430 28861 4
185.350845 -217.398331 -7.124531 0.853185 28861 4
186.338745 -215.793182 -7.110203 0.854905 28861 4
187.322861 -214.194443 -7.096222 0.856591 28861 4
188.303192 -212.602097 -7.082577 0.858243 28861 4
189.279907 -211.015854 -7.069237 0.859860 28861 4
190.253067 -209.435669 -7.056255 0.861443 28861 4
191.222809 -207.861252 -7.043591 0.862992 28861 4
192.189209 -206.292526 -7.031261 0.864506 28861 4
193.152298 -204.729431 -7.019234 0.865985 28861 4
194.112259 -203.171646 -7.007557 0.867430 28861 4
195.069153 -201.619095 -6.996193 0.868840 28861 4
196.023056 -200.071625 -6.985126 0.870215 28861 4
196.974152 -198.528976 -6.974396 0.871555 28861 4
197.922531 -196.990967 -6.963966 0.872861 28861 4
198.868118 -195.457733 -6.953846 0.874132 28861 4
199.811066 -193.929047 -6.944031 0.875367 28861 4
200.751511 -192.404663 -6.934525 0.876567 28861 4
201.689453 -190.884521 -6.925301 0.877733 28861 4
202.625076 -189.368439 -6.916405 0.878863 28861 4
203.558487 -187.856171 -6.907791 0.879958 28861 4
204.489624 -186.347809 -6.899487 0.881018 28861 4
205.418747 -184.843002 -6.891472 0.882043 28861 4
206.345779 -183.341797 -6.883759 0.883032 28861 4
207.270950 -181.843842 -6.876328 0.883986 28861 4
208.194199 -180.349243 -6.869202 0.884904 28861 4
209.115738 -178.857666 -6.862343 0.885787 28861 4
210.035522 -177.369171 -6.855797 0.886635 28861 4
210.953674 -175.883545 -6.849495 0.887447 28861 4
211.870300 -174.400635 -6.843491 0.888224 28861 4
212.785461 -172.920380 -6.837807 0.888965 28861 4
213.699203 -171.442581 -6.832382 0.889671 28861 4
214.611664 -169.967163 -6.827244 0.890341 28861 4
215.522873 -168.493958 -6.822384 0.890975 28861 4
216.432938 -167.022888 -6.817802 0.891573 28861 4
217.341858 -165.553879 -6.813499 0.892136 28861 4
218.249817 -164.086655 -6.809464 0.892664 28861 4
219.156815 -162.621246 -6.805725 0.893155 28861 4
220.062988 -161.157425 -6.802254 0.893611 28861 4
220.968353 -159.695099 -6.799034 0.894031 28861 4
221.873016 -158.234222 -6.796143 0.894415 28861 4
222.777054 -156.774536 -6.793491 0.894764 28861 4
223.680466 -155.316101 -6.791092 0.895076 28861 4
224.583496 -153.858551 -6.789001 0.895353 28861 4
225.486008 -152.402069 -6.787197 0.895594 28861 4
226.388229 -150.946289 -6.785660 0.895799 28861 4
227.290192 -149.491180 -6.784355 0.895968 28861 4
248.053360 -150.056000 -7.229866 0.142879 28863 4
238.604614 -142.297974 -6.928249 0.149099 28863 4
229.912659 -135.161301 -6.651051 0.155313 28863 4
221.888733 -128.573120 -6.395412 0.161521 28863 4
214.459015 -122.472855 -6.158932 0.167723 28863 4
207.558472 -116.807068 -5.939548 0.173918 28863 4
201.132629 -111.531021 -5.735485 0.180106 28863 4
195.133209 -106.605118 -5.545177 0.186287 28863 4
189.518860 -101.995377 -5.367302 0.192461 28863 4
184.253677 -97.672318 -5.200672 0.198627 28863 4
179.304993 -93.609131 -5.044262 0.204785 28863 4
180.086334 -92.580414 -5.049774 0.977182 28863 4
180.914276 -91.572052 -5.056744 0.975836 28863 4
181.744476 -90.560905 -5.063927 0.974451 28863 4
182.577133 -89.546799 -5.071331 0.973028 28863 4
183.412247 -88.529686 -5.078957 0.971567 28863 4
184.249863 -87.509529 -5.086815 0.970066 28863 4
185.090179 -86.486099 -5.094891 0.968528 28863 4
185.933136 -85.459419 -5.103203 0.966951 28863 4
186.778931 -84.429306 -5.111736 0.965336 28863 4
187.627548 -83.395760 -5.120510 0.963683 28863 4
188.479141 -82.358566 -5.129513 0.961992 28863 4
189.333786 -81.317673 -5.138744 0.960262 28863 4
190.191498 -80.273048 -5.148220 0.958495 28863 4
191.052460 -79.224449 -5.157940 0.956690 28863 4
191.916672 -78.171898 -5.167885 0.954847 28863 4
192.784286 -77.115196 -5.178082 0.952966 28863 4
193.655380 -76.054268 -5.188538 0.951047 28863 4
194.529999 -74.989052 -5.199238 0.949091 28863 4
195.408279 -73.919365 -5.210182 0.947097 28863 4
196.290253 -72.845177 -5.221375 0.945066 28863 4
197.176147 -71.766220 -5.232822 0.942998 28863 4
198.065887 -70.682571 -5.244534 0.940892 28863 4
198.959747 -69.593925 -5.256500 0.938749 28863 4
199.857666 -68.500313 -5.268749 0.936568 28863 4
200.759827 -67.401550 -5.281265 0.934351 28863 4
201.666321 -66.297508 -5.294022 0.932097 28863 4
202.577209 -65.188095 -5.307076 0.929806 28863 4
203.492676 -64.073120 -5.320385 0.927478 28863 4
204.412766 -62.952526 -5.333992 0.925113 28863 4
205.337646 -61.826088 -5.347862 0.922712 28863 4
206.267365 -60.693741 -5.362034 0.920274 28863 4
207.202042 -59.555374 -5.376484 0.917800 28863 4
208.141846 -58.410759 -5.391247 0.915290 28863 4
