ply
format ascii 1.0
element vertex 1127
property float32 x
property float32 y
property float32 z
property float32 I
end_header
-90.244698 362.923767 -20.000000 0.223568
-92.525398 362.349030 -20.000000 0.223568
-94.802689 361.759888 -20.000000 0.223568
-106.130257 358.600159 -20.000000 0.223568
-112.877251 356.534027 -20.000000 0.223568
-119.583847 354.340851 -20.000000 0.223568
-124.031448 352.808655 -20.000000 0.223568
-130.665848 350.405762 -20.000000 0.223568
-135.063278 348.734375 -20.000000 0.223568
-137.253830 347.878021 -20.000000 0.223568
-145.961197 344.315399 -20.000000 0.223568
-148.124115 343.390503 -20.000000 0.223568
-150.281158 342.452911 -20.000000 0.223567
-154.576401 340.534760 -20.000000 0.223568
-167.314087 334.460419 -20.000000 0.223568
-175.674667 330.145691 -20.000000 0.223568
-179.813507 327.909790 -20.000000 0.223568
-185.968292 324.458862 -20.000000 0.223568
-190.034851 322.093903 -20.000000 0.223568
-198.077026 317.211670 -20.000000 0.223568
-211.846191 308.186493 -20.000000 0.223568
-213.780594 306.847809 -20.000000 0.223568
-221.431503 301.373260 -20.000000 0.223568
-228.942505 295.707733 -20.000000 0.223568
-230.797836 294.261993 -20.000000 0.223568
-247.076263 280.733124 -20.000000 0.223568
-248.836990 279.173584 -20.000000 0.223568
-252.329575 276.022064 -20.000000 0.223567
-254.059921 274.429047 -20.000000 0.223568
-255.780792 272.825836 -20.000000 0.223568
-259.192261 269.586945 -20.000000 0.223568
-260.882751 267.951385 -20.000000 0.223568
-262.562805 266.305267 -20.000000 0.223568
-265.891937 262.981384 -20.000000 0.223568
-267.541199 261.304596 -20.000000 0.223567
-280.344208 247.517487 -20.000000 0.223568
-281.895477 245.749191 -20.000000 0.223568
-283.435425 243.971649 -20.000000 0.223568
-284.964447 242.183899 -20.000000 0.223568
-286.481964 240.386902 -20.000000 0.223568
-287.988129 238.580353 -20.000000 0.223568
-290.966431 234.938980 -20.000000 0.223568
-301.025269 221.905853 -20.000000 0.223567
-302.414276 220.007645 -20.000000 0.223568
-303.792084 218.101227 -20.000000 0.223568
-309.182129 210.390533 -20.000000 0.223568
-314.376770 202.546295 -20.000000 0.223568
-318.142365 196.578796 -20.000000 0.223568
-326.485992 182.386032 -20.000000 0.223568
-329.868958 176.193756 -20.000000 0.223568
-330.970642 174.115540 -20.000000 0.223568
-333.134583 169.938599 -20.000000 0.223568
-334.196747 167.840134 -20.000000 0.223568
-336.281616 163.622910 -20.000000 0.223568
-339.308868 157.249023 -20.000000 0.223568
-341.259949 152.968719 -20.000000 0.223568
-343.157135 148.663940 -20.000000 0.223568
-351.822601 126.801598 -20.000000 0.223568
-352.613129 124.586411 -20.000000 0.223568
-353.389832 122.365936 -20.000000 0.223568
-354.901001 117.911339 -20.000000 0.223568
-355.635559 115.676842 -20.000000 0.223568
-359.096863 104.437660 -20.000000 0.223568
-364.951050 81.660698 -20.000000 0.223568
-366.426819 74.760551 -20.000000 0.223568
-367.772064 67.833977 -20.000000 0.223568
-368.596283 63.202377 -20.000000 0.223568
-369.362976 58.560871 -20.000000 0.223567
-370.402100 51.581829 -20.000000 0.223567
-370.718414 49.250961 -20.000000 0.223568
-372.312531 35.229561 -20.000000 0.223568
-372.726288 30.543602 -20.000000 0.223568
-372.911804 28.198748 -20.000000 0.223567
-373.503174 18.809208 -20.000000 0.223567
-373.858124 9.407582 -20.000000 0.223567
-373.909119 7.056016 -20.000000 0.223568
-373.968201 2.352108 -20.000000 0.223568
-266.876770 -1.678680 -20.000000 0.342830
-266.750092 -8.391346 -20.000000 0.342830
-266.354370 -16.774355 -20.000000 0.342830
-265.848083 -23.469400 -20.000000 0.342830
-265.531860 -26.811535 -20.000000 0.342830
-265.358002 -28.481068 -20.000000 0.342830
-264.557129 -35.147156 -20.000000 0.342830
-263.589752 -41.790977 -20.000000 0.342830
-263.321655 -43.448170 -20.000000 0.342830
-261.824921 -51.706028 -20.000000 0.342830
-261.494934 -53.351685 -20.000000 0.342830
-261.154205 -54.995354 -20.000000 0.342830
-260.803223 -56.636848 -20.000000 0.342830
-260.441833 -58.275898 -20.000000 0.342830
-259.688202 -61.547356 -20.000000 0.342830
-256.264038 -74.530334 -20.000000 0.342830
-255.305878 -77.747757 -20.000000 0.342830
-254.308136 -80.953117 -20.000000 0.342830
-253.793961 -82.551003 -20.000000 0.342830
-253.269775 -84.145462 -20.000000 0.342830
-252.735474 -85.736832 -20.000000 0.342830
-249.320511 -95.210686 -20.000000 0.342830
-248.103134 -98.339340 -20.000000 0.342830
-246.846970 -101.452469 -20.000000 0.342830
-245.551300 -104.549355 -20.000000 0.342830
-244.216782 -107.629814 -20.000000 0.342830
-242.142670 -112.218384 -20.000000 0.342830
-240.711563 -115.255135 -20.000000 0.342830
-239.982254 -116.767090 -20.000000 0.342830
-239.243134 -118.273994 -20.000000 0.342830
-238.494492 -119.776489 -20.000000 0.342830
-237.736511 -121.273994 -20.000000 0.342830
-236.192200 -124.254868 -20.000000 0.342830
-235.405640 -125.737732 -20.000000 0.342830
-234.610138 -127.215866 -20.000000 0.342830
-232.991821 -130.156967 -20.000000 0.342830
-232.168518 -131.619873 -20.000000 0.342830
-230.494659 -134.529739 -20.000000 0.342830
-228.784149 -137.418549 -20.000000 0.342830
-227.915314 -138.854797 -20.000000 0.342830
-227.037521 -140.285477 -20.000000 0.342830
-225.254486 -143.129959 -20.000000 0.342830
-223.436707 -145.952316 -20.000000 0.342830
-217.771240 -154.278091 -20.000000 0.342830
-213.821411 -159.707367 -20.000000 0.342830
-211.795624 -162.384201 -20.000000 0.342830
-210.770187 -163.713028 -20.000000 0.342830
-208.693909 -166.350983 -20.000000 0.342830
-205.518372 -170.259232 -20.000000 0.342830
-202.269409 -174.106552 -20.000000 0.342830
-201.170486 -175.375183 -20.000000 0.342830
-196.695084 -180.380341 -20.000000 0.342830
-195.556473 -181.613480 -20.000000 0.342830
-194.410324 -182.839874 -20.000000 0.342830
-190.926376 -186.475555 -20.000000 0.342830
-189.749481 -187.672379 -20.000000 0.342830
-188.565613 -188.862488 -20.000000 0.342830
-186.175140 -191.219421 -20.000000 0.342830
-183.755096 -193.546112 -20.000000 0.342830
-180.070801 -196.978531 -20.000000 0.342830
-177.578796 -199.228043 -20.000000 0.342830
-176.322266 -200.340927 -20.000000 0.342830
-169.935791 -205.786011 -20.000000 0.342830
-168.638153 -206.850739 -20.000000 0.342830
-167.333862 -207.907196 -20.000000 0.342830
-158.021042 -215.070129 -20.000000 0.342830
-152.561264 -218.977325 -20.000000 0.342830
-149.794479 -220.878723 -20.000000 0.342830
-147.004501 -222.745880 -20.000000 0.342830
-145.600723 -223.665970 -20.000000 0.342830
-142.775803 -225.479706 -20.000000 0.342830
-141.354752 -226.373337 -20.000000 0.342830
-137.058624 -228.999939 -20.000000 0.342830
-135.615356 -229.857117 -20.000000 0.342830
-132.713486 -231.545151 -20.000000 0.342830
-131.254654 -232.375290 -20.000000 0.342830
-123.883347 -236.387329 -20.000000 0.342830
-122.394073 -237.161804 -20.000000 0.342830
-117.897583 -239.428925 -20.000000 0.342830
-116.389351 -240.165222 -20.000000 0.342830
-111.837227 -242.318481 -20.000000 0.342830
-104.163101 -245.715515 -20.000000 0.342830
-102.615524 -246.365295 -20.000000 0.342830
-97.949036 -248.257523 -20.000000 0.342830
-96.385757 -248.869080 -20.000000 0.342830
-90.095032 -251.214890 -20.000000 0.342830
-88.513092 -251.776154 -20.000000 0.342830
-82.151802 -253.923508 -20.000000 0.342830
-78.951134 -254.936279 -20.000000 0.342830
-74.127281 -256.380951 -20.000000 0.342830
-72.513214 -256.841644 -20.000000 0.342830
-64.401688 -258.994629 -20.000000 0.342830
-52.940395 -261.578125 -20.000000 0.342830
-51.294235 -261.906372 -20.000000 0.342830
-47.995743 -262.530853 -20.000000 0.342830
-41.376480 -263.654663 -20.000000 0.342830
-39.717457 -263.910156 -20.000000 0.342830
-34.731079 -264.612518 -20.000000 0.342830
-28.063702 -265.402435 -20.000000 0.342830
-26.393845 -265.573273 -20.000000 0.342830
-16.355526 -266.379974 -20.000000 0.342830
-11.326712 -266.641144 -20.000000 0.342830
-6.293957 -266.807861 -20.000000 0.342830
-2.937335 -266.865906 -20.000000 0.342830
-1.258927 -266.878693 -20.000000 0.342830
0.419622 -266.881714 -20.000000 0.342830
2.098089 -266.873383 -20.000000 0.342830
3.776573 -266.854858 -20.000000 0.342830
10.488201 -266.675415 -20.000000 0.342830
15.517822 -266.430573 -20.000000 0.342830
20.541861 -266.089905 -20.000000 0.342830
30.566233 -265.125458 -20.000000 0.342830
35.563099 -264.501953 -20.000000 0.342830
37.225830 -264.272675 -20.000000 0.342830
45.516773 -262.971497 -20.000000 0.342830
47.169907 -262.680481 -20.000000 0.342830
48.821121 -262.378571 -20.000000 0.342830
52.117611 -261.743744 -20.000000 0.342830
53.762798 -261.410797 -20.000000 0.342830
57.046787 -260.713776 -20.000000 0.342830
61.955593 -259.591095 -20.000000 0.342830
63.586918 -259.195862 -20.000000 0.342830
65.215965 -258.791229 -20.000000 0.342830
66.842232 -258.375519 -20.000000 0.342830
76.542686 -255.670151 -20.000000 0.342830
78.149048 -255.183334 -20.000000 0.342830
84.543663 -253.137115 -20.000000 0.342830
86.133919 -252.599976 -20.000000 0.342830
95.602791 -249.170837 -20.000000 0.342830
98.729355 -247.948624 -20.000000 0.342830
112.598740 -241.965530 -20.000000 0.342830
115.633675 -240.530396 -20.000000 0.342830
117.144150 -239.798386 -20.000000 0.342830
120.151009 -238.305573 -20.000000 0.342830
124.626038 -235.996521 -20.000000 0.342830
129.056290 -233.602844 -20.000000 0.342830
130.523026 -232.786469 -20.000000 0.342830
133.441040 -231.126617 -20.000000 0.342830
137.778061 -228.567795 -20.000000 0.342830
139.212891 -227.696747 -20.000000 0.342830
140.642197 -226.816681 -20.000000 0.342830
142.066010 -225.927551 -20.000000 0.342830
143.484192 -225.029602 -20.000000 0.342830
146.303375 -223.206970 -20.000000 0.342830
147.704300 -222.282425 -20.000000 0.342830
153.249146 -218.496521 -20.000000 0.342830
155.985352 -216.551636 -20.000000 0.342830
157.344193 -215.566330 -20.000000 0.342830
158.696686 -214.572083 -20.000000 0.342830
165.364746 -209.476257 -20.000000 0.342830
166.679199 -208.432404 -20.000000 0.342830
169.287842 -206.319336 -20.000000 0.342830
170.581833 -205.250168 -20.000000 0.342830
173.150497 -203.088531 -20.000000 0.342830
174.424362 -201.995483 -20.000000 0.342830
178.204163 -198.668259 -20.000000 0.342830
179.450424 -197.543839 -20.000000 0.342830
180.689346 -196.411285 -20.000000 0.342830
184.362885 -192.967255 -20.000000 0.342830
187.970779 -189.454544 -20.000000 0.342830
189.158447 -188.268158 -20.000000 0.342830
192.676895 -184.665726 -20.000000 0.342830
196.126923 -180.997925 -20.000000 0.342830
198.388092 -178.516586 -20.000000 0.342830
200.617981 -176.007019 -20.000000 0.342830
204.981689 -170.904373 -20.000000 0.342830
214.322632 -159.034103 -20.000000 0.342830
216.305740 -156.325394 -20.000000 0.342830
217.284973 -154.962173 -20.000000 0.342830
219.216949 -152.216766 -20.000000 0.342830
222.976318 -146.653900 -20.000000 0.342830
230.070038 -135.253815 -20.000000 0.342830
229.491272 -132.978424 -19.876547 0.345102
222.230179 -126.910812 -19.178148 0.358247
215.461288 -121.254486 -18.527815 0.370937
209.136520 -115.969292 -17.920874 0.383186
197.652100 -106.372513 -16.820807 0.406427
182.843155 -93.997658 -15.406805 0.438382
184.891327 -84.980576 -15.249121 0.442097
185.743225 -83.961128 -15.275526 0.441473
188.317078 -80.880997 -15.358976 0.439506
189.181366 -79.846703 -15.388201 0.438819
190.049057 -78.808342 -15.418158 0.438116
190.920105 -77.765976 -15.448820 0.437397
193.554749 -74.613106 -15.545317 0.435144
194.440430 -73.553223 -15.578978 0.434360
196.223465 -71.419464 -15.648619 0.432744
199.839249 -67.092468 -15.797323 0.429313
202.597809 -63.791313 -15.917406 0.426563
217.103531 -46.432373 -16.637583 0.410433
219.141815 -43.993168 -16.750025 0.407969
173.591904 -31.454025 -13.220715 0.492799
171.078781 -27.675652 -12.987225 0.498997
170.596436 -26.497650 -12.937740 0.500321
169.642624 -24.168243 -12.841301 0.502910
169.300812 -23.034103 -12.804234 0.503909
168.704178 -20.795059 -12.738293 0.505691
168.229889 -18.591507 -12.683830 0.507167
167.588120 -13.202723 -12.597881 0.509505
167.484940 -11.076727 -12.578682 0.510030
167.433472 -10.016100 -12.569813 0.510271
167.537201 -7.908805 -12.569157 0.510290
167.589828 -6.855168 -12.569603 0.510277
167.642456 -5.801414 -12.570587 0.510251
167.733459 -4.748584 -12.574921 0.510133
167.893768 -3.696468 -12.584927 0.509859
168.054337 -2.642676 -12.595486 0.509571
168.215179 -1.587030 -12.606529 0.509270
168.649307 0.530348 -12.638565 0.508397
168.934280 1.593817 -12.660416 0.507803
169.220230 2.660969 -12.682869 0.507193
170.823303 6.987433 -12.812122 0.503696
172.040192 9.206141 -12.911076 0.501036
173.660019 11.485124 -13.042450 0.497525
176.508087 13.905446 -13.268406 0.491543
265.772980 24.305172 -20.000000 0.342830
265.614838 25.976290 -20.000000 0.342830
265.445831 27.646301 -20.000000 0.342830
265.077087 30.983055 -20.000000 0.342830
264.666351 34.314941 -20.000000 0.342830
263.456604 42.619652 -20.000000 0.342830
262.605957 47.582851 -20.000000 0.342830
261.986298 50.882256 -20.000000 0.342830
260.257233 59.094604 -20.000000 0.342830
259.493317 62.363617 -20.000000 0.342830
258.270142 67.248329 -20.000000 0.342830
256.496765 73.723907 -20.000000 0.342830
256.028381 75.335823 -20.000000 0.342830
254.052307 81.752357 -20.000000 0.342830
253.003860 84.941498 -20.000000 0.342830
251.915375 88.117256 -20.000000 0.342830
249.619095 94.426308 -20.000000 0.342830
247.792709 99.118950 -20.000000 0.342830
245.878891 103.776619 -20.000000 0.342830
243.190552 109.928932 -20.000000 0.342830
242.494400 111.456276 -20.000000 0.342830
241.788574 112.979218 -20.000000 0.342830
238.869705 119.025551 -20.000000 0.342830
238.116684 120.525780 -20.000000 0.342830
237.353577 122.020805 -20.000000 0.342830
230.916504 133.804276 -20.000000 0.342830
230.070419 135.253937 -20.000000 0.342830
227.477570 139.570770 -20.000000 0.342830
224.803680 143.837784 -20.000000 0.342830
223.894608 145.248840 -20.000000 0.342830
222.976303 146.653900 -20.000000 0.342830
218.255341 153.592422 -20.000000 0.342830
215.318619 157.682968 -20.000000 0.342830
214.322311 159.033752 -20.000000 0.342830
212.305252 161.717300 -20.000000 0.342830
209.216003 165.693893 -20.000000 0.342830
202.816010 173.469589 -20.000000 0.342830
200.617966 176.007034 -20.000000 0.342830
199.507004 177.265289 -20.000000 0.342830
193.834457 183.450226 -20.000000 0.342830
190.338791 187.074692 -20.000000 0.342830
189.158432 188.268158 -20.000000 0.342830
187.970535 189.454224 -20.000000 0.342830
185.572861 191.803864 -20.000000 0.342830
183.145599 194.122879 -20.000000 0.342830
180.689331 196.411255 -20.000000 0.342830
175.691391 200.894424 -20.000000 0.342830
171.869705 204.173538 -20.000000 0.342830
167.986908 207.379883 -20.000000 0.342830
165.365051 209.476562 -20.000000 0.342830
158.696915 214.572327 -20.000000 0.342830
157.344223 215.566238 -20.000000 0.342830
154.620300 217.528320 -20.000000 0.342830
153.249130 218.496521 -20.000000 0.342830
151.871658 219.455704 -20.000000 0.342830
149.099457 221.348969 -20.000000 0.342830
142.065811 225.927246 -20.000000 0.342830
137.777863 228.567444 -20.000000 0.342830
134.892105 230.282776 -20.000000 0.342830
133.441025 231.126572 -20.000000 0.342830
127.584564 234.409882 -20.000000 0.342830
120.151230 238.305908 -20.000000 0.342830
115.633659 240.530411 -20.000000 0.342830
109.546516 243.363129 -20.000000 0.342830
104.935326 245.386597 -20.000000 0.342830
103.389999 246.041748 -20.000000 0.342830
97.167923 248.564713 -20.000000 0.342830
94.033615 249.766876 -20.000000 0.342830
87.721085 252.053635 -20.000000 0.342830
81.352966 254.180496 -20.000000 0.342830
79.752670 254.687134 -20.000000 0.342830
76.542755 255.670166 -20.000000 0.342830
66.842209 258.375519 -20.000000 0.342830
63.586884 259.195862 -20.000000 0.342830
58.685410 260.349854 -20.000000 0.342830
57.046787 260.713776 -20.000000 0.342830
45.516815 262.971497 -20.000000 0.342830
40.547230 263.783905 -20.000000 0.342830
20.541885 266.089874 -20.000000 0.342830
15.517815 266.430115 -20.000000 0.342830
10.488232 266.675446 -20.000000 0.342830
8.810826 266.736542 -20.000000 0.342830
7.132930 266.786682 -20.000000 0.342830
5.454913 266.825867 -20.000000 0.342830
3.776684 266.854889 -20.000000 0.342830
-7.971859 266.762512 -20.000000 0.342830
-13.003523 266.564667 -20.000000 0.342830
-14.679763 266.477631 -20.000000 0.342830
-16.355555 266.380432 -20.000000 0.342830
-18.030602 266.272278 -20.000000 0.342830
-19.704889 266.153198 -20.000000 0.342830
-21.378559 266.024445 -20.000000 0.342830
-23.051237 265.884674 -20.000000 0.342830
-29.732382 265.220673 -20.000000 0.342830
-36.394569 264.388428 -20.000000 0.342830
-39.717445 263.910095 -20.000000 0.342830
-41.376507 263.655090 -20.000000 0.342830
-44.689640 263.113403 -20.000000 0.342830
-47.995674 262.530823 -20.000000 0.342830
-51.294231 261.906372 -20.000000 0.342830
-52.940460 261.578522 -20.000000 0.342830
-56.226486 260.891541 -20.000000 0.342830
-66.029343 258.584900 -20.000000 0.342830
-70.896416 257.293121 -20.000000 0.342830
-74.127251 256.380920 -20.000000 0.342830
-75.738304 255.909668 -20.000000 0.342830
-77.346222 255.428268 -20.000000 0.342830
-85.339272 252.869995 -20.000000 0.342830
-86.927902 252.328278 -20.000000 0.342830
-88.513115 251.776642 -20.000000 0.342830
-93.247665 250.061829 -20.000000 0.342830
-102.615501 246.365295 -20.000000 0.342830
-107.245636 244.385773 -20.000000 0.342830
-110.310867 243.017136 -20.000000 0.342830
-116.389343 240.165222 -20.000000 0.342830
-122.394066 237.161774 -20.000000 0.342830
-123.883347 236.387299 -20.000000 0.342830
-128.321198 234.007904 -20.000000 0.342830
-132.713470 231.545105 -20.000000 0.342830
-134.167114 230.705856 -20.000000 0.342830
-135.615295 229.857117 -20.000000 0.342830
-139.928253 227.257782 -20.000000 0.342830
-144.191025 224.577332 -20.000000 0.342830
-145.600647 223.665955 -20.000000 0.342830
-147.004364 222.745392 -20.000000 0.342830
-148.402557 221.816803 -20.000000 0.342830
-152.561264 218.977295 -20.000000 0.342830
-158.021027 215.070114 -20.000000 0.342830
-160.714081 213.065750 -20.000000 0.342830
-164.705383 209.995636 -20.000000 0.342830
-177.578735 199.228088 -20.000000 0.342830
-178.828232 198.107315 -20.000000 0.342830
-181.306046 195.842102 -20.000000 0.342830
-186.175034 191.219498 -20.000000 0.342830
-187.374008 190.044754 -20.000000 0.342830
-189.749481 187.672394 -20.000000 0.342830
-190.926361 186.475647 -20.000000 0.342830
-193.256805 184.059296 -20.000000 0.342830
-195.556458 181.613525 -20.000000 0.342830
-206.585205 168.963257 -20.000000 0.342830
-211.795624 162.384186 -20.000000 0.342830
-214.821655 158.359314 -20.000000 0.342830
-217.771210 154.278107 -20.000000 0.342830
-218.737167 152.905487 -20.000000 0.342830
-222.514359 147.354675 -20.000000 0.342830
-223.436676 145.952347 -20.000000 0.342830
-226.150299 141.710464 -20.000000 0.342830
-227.037445 140.285477 -20.000000 0.342830
-228.784119 137.418579 -20.000000 0.342830
-229.643478 135.976746 -20.000000 0.342830
-230.494629 134.529770 -20.000000 0.342830
-231.336105 133.077530 -20.000000 0.342830
-232.168152 131.619781 -20.000000 0.342830
-233.805786 128.689072 -20.000000 0.342830
-235.406006 125.738014 -20.000000 0.342830
-236.192245 124.254860 -20.000000 0.342830
-236.969086 122.766846 -20.000000 0.342830
-237.736465 121.274071 -20.000000 0.342830
-239.243134 118.274017 -20.000000 0.342830
-240.711548 115.255127 -20.000000 0.342830
-241.432083 113.739105 -20.000000 0.342830
-243.535034 109.163780 -20.000000 0.342830
-245.551300 104.549492 -20.000000 0.342830
-246.846954 101.452469 -20.000000 0.342830
-247.479706 99.897926 -20.000000 0.342830
-248.717102 96.777153 -20.000000 0.342830
-250.498856 92.067192 -20.000000 0.342830
-251.072510 90.489922 -20.000000 0.342830
-253.793976 82.551003 -20.000000 0.342830
-255.305878 77.747879 -20.000000 0.342830
-255.790283 76.140526 -20.000000 0.342830
-256.727722 72.917252 -20.000000 0.342830
-257.624207 69.682007 -20.000000 0.342830
-258.480713 66.436012 -20.000000 0.342830
-259.688202 61.547428 -20.000000 0.342830
-260.803223 56.636875 -20.000000 0.342830
-261.494965 53.351734 -20.000000 0.342830
-261.824951 51.706051 -20.000000 0.342830
-262.144989 50.058235 -20.000000 0.342830
-262.455017 48.408680 -20.000000 0.342830
-262.754333 46.756798 -20.000000 0.342830
-264.557190 35.147198 -20.000000 0.342830
-265.173676 30.149261 -20.000000 0.342830
-265.531860 26.811640 -20.000000 0.342830
-266.122314 20.123539 -20.000000 0.342830
-266.243591 18.449305 -20.000000 0.342830
-266.544312 13.422875 -20.000000 0.342830
-266.692047 10.068938 -20.000000 0.342830
-266.882080 0.000115 -20.000000 0.342830
-207.255463 -5.215237 -20.000000 0.434685
-207.218552 -6.518552 -20.000000 0.434685
-207.120178 -9.124617 -20.000000 0.434685
-207.058670 -10.427202 -20.000000 0.434685
-206.989014 -11.729237 -20.000000 0.434685
-206.911133 -13.030734 -20.000000 0.434685
-206.628448 -16.932426 -20.000000 0.434685
-205.683014 -26.010126 -20.000000 0.434685
-205.515335 -27.303265 -20.000000 0.434685
-204.963623 -31.175928 -20.000000 0.434685
-204.555237 -33.751671 -20.000000 0.434685
-204.114532 -36.321880 -20.000000 0.434685
-203.392883 -40.166664 -20.000000 0.434685
-202.318115 -45.270252 -20.000000 0.434685
-202.029388 -46.541950 -20.000000 0.434685
-201.732666 -47.811634 -20.000000 0.434685
-201.427979 -49.079456 -20.000000 0.434685
-200.794708 -51.609207 -20.000000 0.434685
-200.466095 -52.871174 -20.000000 0.434685
-200.129608 -54.130905 -20.000000 0.434685
-199.072723 -57.897144 -20.000000 0.434685
-196.746643 -65.366409 -20.000000 0.434685
-195.908875 -67.836044 -20.000000 0.434685
-194.594147 -71.520203 -20.000000 0.434685
-194.140442 -72.742767 -20.000000 0.434685
-193.679108 -73.962318 -20.000000 0.434685
-193.210083 -75.179108 -20.000000 0.434685
-192.733459 -76.392670 -20.000000 0.434685
-191.757263 -78.810974 -20.000000 0.434685
-191.257812 -80.015450 -20.000000 0.434685
-189.184464 -84.801270 -20.000000 0.434685
-187.550842 -88.355530 -20.000000 0.434685
-186.424591 -90.707733 -20.000000 0.434685
-185.850418 -91.878464 -20.000000 0.434685
-184.680023 -94.208870 -20.000000 0.434685
-184.083847 -95.368568 -20.000000 0.434685
-182.869659 -97.676567 -20.000000 0.434685
-182.251663 -98.824814 -20.000000 0.434685
-181.626495 -99.969116 -20.000000 0.434685
-180.994217 -101.109444 -20.000000 0.434685
-180.354675 -102.245819 -20.000000 0.434685
-179.054352 -104.506294 -20.000000 0.434685
-177.050659 -107.866089 -20.000000 0.434685
-175.679871 -110.084518 -20.000000 0.434685
-174.281281 -112.285614 -20.000000 0.434685
-172.131775 -115.553818 -20.000000 0.434685
-171.401489 -116.634270 -20.000000 0.434685
-169.920837 -118.781044 -20.000000 0.434685
-168.413345 -120.908890 -20.000000 0.434685
-167.649536 -121.965744 -20.000000 0.434685
-166.879150 -123.017769 -20.000000 0.434685
-162.928741 -128.203903 -20.000000 0.434685
-160.480881 -131.255112 -20.000000 0.434685
-159.652145 -132.261887 -20.000000 0.434685
-157.975876 -134.259613 -20.000000 0.434685
-157.128296 -135.250565 -20.000000 0.434685
-154.548477 -138.191147 -20.000000 0.434685
-153.676254 -139.160461 -20.000000 0.434685
-152.797928 -140.124283 -20.000000 0.434685
-151.913727 -141.082397 -20.000000 0.434685
-151.023331 -142.035126 -20.000000 0.434685
-150.127075 -142.982117 -20.000000 0.434685
-146.482758 -146.713394 -20.000000 0.434685
-145.557114 -147.631790 -20.000000 0.434685
-144.625671 -148.544373 -20.000000 0.434685
-143.688538 -149.451035 -20.000000 0.434685
-142.745819 -150.351746 -20.000000 0.434685
-140.843323 -152.135391 -20.000000 0.434685
-137.947922 -154.765640 -20.000000 0.434685
-135.990250 -156.488556 -20.000000 0.434685
-135.003387 -157.340759 -20.000000 0.434685
-134.010956 -158.186844 -20.000000 0.434685
-133.013474 -159.026505 -20.000000 0.434685
-129.989395 -161.507797 -20.000000 0.434685
-125.885452 -164.726624 -20.000000 0.434685
-120.643898 -168.603271 -20.000000 0.434685
-119.581039 -169.358765 -20.000000 0.434685
-117.441399 -170.849487 -20.000000 0.434685
-116.364555 -171.584702 -20.000000 0.434685
-114.196976 -173.034866 -20.000000 0.434685
-110.911964 -175.158661 -20.000000 0.434685
-107.587524 -177.220093 -20.000000 0.434685
-105.349739 -178.559357 -20.000000 0.434685
-101.962059 -180.515244 -20.000000 0.434685
-96.235855 -183.631897 -20.000000 0.434685
-95.078949 -184.233551 -20.000000 0.434685
-93.918304 -184.827942 -20.000000 0.434685
-92.753998 -185.414978 -20.000000 0.434685
-90.414444 -186.567047 -20.000000 0.434685
-89.239182 -187.131989 -20.000000 0.434685
-86.878311 -188.239685 -20.000000 0.434685
-84.503616 -189.317627 -20.000000 0.434685
-76.089493 -192.853333 -20.000000 0.434685
-74.875015 -193.328094 -20.000000 0.434685
-73.657661 -193.795197 -20.000000 0.434685
-71.214180 -194.706329 -20.000000 0.434685
-69.988167 -195.150406 -20.000000 0.434685
-67.527916 -196.015320 -20.000000 0.434685
-65.056984 -196.849213 -20.000000 0.434685
-63.817646 -197.254456 -20.000000 0.434685
-57.584000 -199.163498 -20.000000 0.434685
-56.330250 -199.521744 -20.000000 0.434685
-55.074253 -199.872055 -20.000000 0.434685
-50.028996 -201.194244 -20.000000 0.434685
-44.952030 -202.389069 -20.000000 0.434685
-41.125557 -203.201157 -20.000000 0.434685
-39.846676 -203.455780 -20.000000 0.434685
-33.429890 -204.608063 -20.000000 0.434685
-32.142376 -204.814270 -20.000000 0.434685
-28.272308 -205.384216 -20.000000 0.434685
-24.392256 -205.881104 -20.000000 0.434685
-21.800583 -206.171677 -20.000000 0.434685
-17.906813 -206.546280 -20.000000 0.434685
-16.607407 -206.654800 -20.000000 0.434685
-15.307320 -206.755157 -20.000000 0.434685
-10.101499 -207.074844 -20.000000 0.434685
-7.496048 -207.185486 -20.000000 0.434685
-6.192761 -207.228546 -20.000000 0.434685
-4.889277 -207.263397 -20.000000 0.434685
-2.281738 -207.308502 -20.000000 0.434685
-0.977932 -207.318726 -20.000000 0.434685
1.629903 -207.314651 -20.000000 0.434685
2.933795 -207.300308 -20.000000 0.434685
4.237552 -207.277740 -20.000000 0.434685
5.541087 -207.247025 -20.000000 0.434685
13.356162 -206.890411 -20.000000 0.434685
14.657128 -206.802277 -20.000000 0.434685
15.957534 -206.706009 -20.000000 0.434685
18.556311 -206.488953 -20.000000 0.434685
27.626396 -205.472153 -20.000000 0.434685
28.918070 -205.294327 -20.000000 0.434685
34.073246 -204.501938 -20.000000 0.434685
35.358746 -204.283600 -20.000000 0.434685
37.925549 -203.822662 -20.000000 0.434685
44.315453 -202.529434 -20.000000 0.434685
45.588371 -202.246704 -20.000000 0.434685
48.128750 -201.657272 -20.000000 0.434685
49.396080 -201.350571 -20.000000 0.434685
50.661533 -201.035873 -20.000000 0.434685
53.186256 -200.382721 -20.000000 0.434685
58.210136 -198.981415 -20.000000 0.434685
61.953983 -197.847717 -20.000000 0.434685
63.197098 -197.454132 -20.000000 0.434685
64.437698 -197.052826 -20.000000 0.434685
65.675797 -196.643616 -20.000000 0.434685
66.911232 -196.226669 -20.000000 0.434685
68.144035 -195.801971 -20.000000 0.434685
69.374199 -195.369507 -20.000000 0.434685
79.112411 -191.633087 -20.000000 0.434685
81.516556 -190.622833 -20.000000 0.434685
83.907921 -189.582413 -20.000000 0.434685
85.098625 -189.050919 -20.000000 0.434685
88.650345 -187.411682 -20.000000 0.434685
91.000732 -186.281723 -20.000000 0.434685
92.170517 -185.705719 -20.000000 0.434685
93.336685 -185.122360 -20.000000 0.434685
94.499214 -184.531616 -20.000000 0.434685
99.111206 -182.096085 -20.000000 0.434685
100.254532 -181.469116 -20.000000 0.434685
101.393921 -180.834991 -20.000000 0.434685
103.660583 -179.545288 -20.000000 0.434685
104.787750 -178.889786 -20.000000 0.434685
108.144302 -176.880859 -20.000000 0.434685
111.462341 -174.808929 -20.000000 0.434685
112.559555 -174.104446 -20.000000 0.434685
113.652359 -173.393082 -20.000000 0.434685
114.740646 -172.674835 -20.000000 0.434685
117.978119 -170.479263 -20.000000 0.434685
119.048019 -169.733841 -20.000000 0.434685
124.325897 -165.906860 -20.000000 0.434685
126.402893 -164.329926 -20.000000 0.434685
128.459915 -162.726959 -20.000000 0.434685
129.480881 -161.915802 -20.000000 0.434685
130.496674 -161.098236 -20.000000 0.434685
132.512726 -159.444016 -20.000000 0.434685
133.512939 -158.607437 -20.000000 0.434685
134.507874 -157.764526 -20.000000 0.434685
135.497482 -156.915421 -20.000000 0.434685
136.481781 -156.060089 -20.000000 0.434685
137.460556 -155.198639 -20.000000 0.434685
141.321152 -151.691635 -20.000000 0.434685
142.272339 -150.799866 -20.000000 0.434685
143.217972 -149.902084 -20.000000 0.434685
144.157913 -148.998398 -20.000000 0.434685
146.943481 -146.251953 -20.000000 0.434685
148.771545 -144.391983 -20.000000 0.434685
149.676758 -143.453461 -20.000000 0.434685
151.469269 -141.559448 -20.000000 0.434685
152.356628 -140.603989 -20.000000 0.434685
154.113144 -138.676437 -20.000000 0.434685
157.552872 -134.755768 -20.000000 0.434685
160.067352 -131.759125 -20.000000 0.434685
160.892822 -130.749786 -20.000000 0.434685
162.524765 -128.715637 -20.000000 0.434685
163.331131 -127.690903 -20.000000 0.434685
164.924347 -125.626335 -20.000000 0.434685
166.491516 -123.541916 -20.000000 0.434685
168.032288 -121.437912 -20.000000 0.434685
168.792725 -120.378708 -20.000000 0.434685
173.927261 -112.833183 -20.000000 0.434685
177.389008 -107.308693 -20.000000 0.434685
181.940048 -99.397415 -20.000000 0.434685
183.783020 -95.946976 -20.000000 0.434685
180.673981 -90.027466 -19.473310 0.444327
184.042389 -85.996498 -19.596937 0.442045
187.455994 -81.911469 -19.734701 0.439516
189.181396 -79.846680 -19.809019 0.438157
190.049057 -78.808350 -19.847593 0.437453
190.920105 -77.765968 -19.887083 0.436734
191.794708 -76.719330 -19.927530 0.435999
193.445541 -74.571022 -20.000000 0.434685
194.818069 -70.907959 -20.000000 0.434685
196.540115 -65.984863 -20.000000 0.434685
197.354568 -63.507484 -20.000000 0.434685
197.750061 -62.264973 -20.000000 0.434685
198.137772 -61.020012 -20.000000 0.434685
198.517639 -59.772629 -20.000000 0.434685
198.889664 -58.522877 -20.000000 0.434685
199.253799 -57.270828 -20.000000 0.434685
199.958389 -54.759995 -20.000000 0.434685
200.298874 -53.501228 -20.000000 0.434685
200.955994 -50.977566 -20.000000 0.434685
201.272629 -49.712624 -20.000000 0.434685
202.174744 -45.906353 -20.000000 0.434685
202.459488 -44.633850 -20.000000 0.434685
202.736176 -43.359661 -20.000000 0.434685
173.587051 -31.453156 -17.018398 0.492170
171.073044 -27.674717 -16.717770 0.498373
170.590744 -26.496769 -16.654011 0.499698
169.294952 -23.033302 -16.482132 0.503289
168.995895 -21.910938 -16.439278 0.504188
168.402374 -19.683445 -16.356167 0.505937
168.223892 -18.590843 -16.327152 0.506549
168.059799 -17.503544 -16.300217 0.507117
167.733185 -15.339412 -16.248539 0.508210
167.633682 -14.267746 -16.229893 0.508605
167.427353 -10.015735 -16.180386 0.509655
167.478241 -8.962021 -16.179535 0.509673
167.583481 -6.854908 -16.180092 0.509661
167.887161 -3.696321 -16.199799 0.509243
168.047714 -2.642571 -16.213364 0.508955
168.927307 1.593751 -16.296932 0.507187
170.367111 5.895703 -16.444946 0.504069
171.350525 8.088775 -16.548374 0.501902
172.031921 9.205697 -16.619450 0.500418
172.719208 10.332255 -16.691799 0.498912
173.650482 11.484494 -16.788441 0.496908
174.753021 12.661769 -16.902405 0.494554
176.495407 13.904447 -17.079048 0.490929
206.574219 17.582064 -20.000000 0.434685
206.459534 18.880938 -20.000000 0.434685
206.336670 20.179068 -20.000000 0.434685
206.205688 21.476376 -20.000000 0.434685
206.066528 22.772882 -20.000000 0.434685
205.919235 24.068478 -20.000000 0.434685
204.448120 34.394665 -20.000000 0.434685
204.227753 35.679905 -20.000000 0.434685
203.762802 38.245987 -20.000000 0.434685
203.265564 40.805992 -20.000000 0.434685
202.736206 43.359543 -20.000000 0.434685
202.459503 44.633801 -20.000000 0.434685
202.174774 45.906284 -20.000000 0.434685
201.882034 47.176949 -20.000000 0.434685
200.956024 50.977547 -20.000000 0.434685
200.631424 52.240395 -20.000000 0.434685
200.298889 53.501213 -20.000000 0.434685
199.253830 57.270771 -20.000000 0.434685
198.889664 58.522884 -20.000000 0.434685
198.517639 59.772598 -20.000000 0.434685
197.750076 62.264935 -20.000000 0.434685
196.540161 65.984833 -20.000000 0.434685
194.818085 70.907928 -20.000000 0.434685
194.368271 72.131821 -20.000000 0.434685
193.910767 73.352859 -20.000000 0.434685
193.445557 74.570999 -20.000000 0.434685
192.492279 76.998375 -20.000000 0.434685
189.450272 84.205841 -20.000000 0.434685
188.376099 86.582199 -20.000000 0.434685
187.827789 87.765282 -20.000000 0.434685
186.138443 91.293449 -20.000000 0.434685
185.560608 92.462357 -20.000000 0.434685
184.382874 94.789146 -20.000000 0.434685
183.783051 95.946953 -20.000000 0.434685
183.175964 97.100945 -20.000000 0.434685
181.940033 99.397415 -20.000000 0.434685
181.311310 100.539711 -20.000000 0.434685
180.032318 102.812416 -20.000000 0.434685
179.382111 103.942734 -20.000000 0.434685
177.389008 107.308685 -20.000000 0.434685
176.025192 109.531563 -20.000000 0.434685
174.633484 111.737015 -20.000000 0.434685
173.214203 113.924828 -20.000000 0.434685
169.546539 119.314674 -20.000000 0.434685
168.792725 120.378670 -20.000000 0.434685
165.711243 124.586548 -20.000000 0.434685
164.924408 125.626282 -20.000000 0.434685
164.131012 126.661095 -20.000000 0.434685
163.331146 127.690903 -20.000000 0.434685
160.892883 130.749756 -20.000000 0.434685
156.702209 135.743988 -20.000000 0.434685
154.982361 137.704376 -20.000000 0.434685
153.237961 139.642975 -20.000000 0.434685
148.771606 144.391953 -20.000000 0.434685
145.092163 148.088776 -20.000000 0.434685
141.321152 151.691650 -20.000000 0.434685
139.401932 153.457260 -20.000000 0.434685
138.433960 154.331009 -20.000000 0.434685
135.497528 156.915436 -20.000000 0.434685
132.512772 159.444000 -20.000000 0.434685
130.496658 161.098236 -20.000000 0.434685
128.459946 162.726959 -20.000000 0.434685
126.402939 164.329926 -20.000000 0.434685
125.366882 165.121689 -20.000000 0.434685
122.229233 167.457596 -20.000000 0.434685
121.173584 168.223053 -20.000000 0.434685
115.824440 171.949783 -20.000000 0.434685
114.740669 172.674866 -20.000000 0.434685
112.559555 174.104477 -20.000000 0.434685
109.254631 176.197205 -20.000000 0.434685
105.910805 178.227173 -20.000000 0.434685
99.111229 182.096085 -20.000000 0.434685
95.657928 183.933685 -20.000000 0.434685
93.336731 185.122345 -20.000000 0.434685
91.000763 186.281738 -20.000000 0.434685
85.098625 189.050903 -20.000000 0.434685
83.907921 189.582397 -20.000000 0.434685
82.713882 190.106384 -20.000000 0.434685
81.516563 190.622849 -20.000000 0.434685
80.316109 191.131744 -20.000000 0.434685
77.905571 192.126907 -20.000000 0.434685
76.695618 192.613098 -20.000000 0.434685
70.601578 194.929352 -20.000000 0.434685
66.911224 196.226685 -20.000000 0.434685
63.197140 197.454147 -20.000000 0.434685
61.953995 197.847733 -20.000000 0.434685
56.957478 199.343597 -20.000000 0.434685
55.702568 199.697906 -20.000000 0.434685
53.186310 200.382721 -20.000000 0.434685
51.924919 200.713272 -20.000000 0.434685
50.661530 201.035919 -20.000000 0.434685
49.396095 201.350571 -20.000000 0.434685
46.859558 201.955963 -20.000000 0.434685
43.040844 202.804108 -20.000000 0.434685
41.764370 203.070831 -20.000000 0.434685
40.486351 203.329468 -20.000000 0.434685
35.358753 204.283600 -20.000000 0.434685
31.498146 204.914337 -20.000000 0.434685
30.208796 205.108383 -20.000000 0.434685
27.626398 205.472168 -20.000000 0.434685
23.744713 205.956833 -20.000000 0.434685
22.448936 206.102066 -20.000000 0.434685
13.356164 206.890396 -20.000000 0.434685
10.752814 207.042053 -20.000000 0.434685
4.237553 207.277725 -20.000000 0.434685
-2.281726 207.308533 -20.000000 0.434685
-6.192736 207.228546 -20.000000 0.434685
-7.496048 207.185486 -20.000000 0.434685
-10.101474 207.074814 -20.000000 0.434685
-14.006589 206.847382 -20.000000 0.434685
-17.906815 206.546265 -20.000000 0.434685
-19.205490 206.429565 -20.000000 0.434685
-20.503401 206.304688 -20.000000 0.434685
-23.096840 206.030472 -20.000000 0.434685
-26.980009 205.557999 -20.000000 0.434685
-29.563442 205.202408 -20.000000 0.434685
-32.142361 204.814301 -20.000000 0.434685
-34.716110 204.393753 -20.000000 0.434685
-39.846680 203.455795 -20.000000 0.434685
-42.402660 202.938507 -20.000000 0.434685
-43.678303 202.667770 -20.000000 0.434685
-46.224064 202.102356 -20.000000 0.434685
-47.494221 201.807663 -20.000000 0.434685
-48.762619 201.504898 -20.000000 0.434685
-50.028915 201.194260 -20.000000 0.434685
-57.584007 199.163513 -20.000000 0.434685
-63.817616 197.254501 -20.000000 0.434685
-67.527916 196.015320 -20.000000 0.434685
-69.988182 195.150375 -20.000000 0.434685
-74.874992 193.328125 -20.000000 0.434685
-76.089424 192.853363 -20.000000 0.434685
-77.300888 192.370956 -20.000000 0.434685
-78.509315 191.880981 -20.000000 0.434685
-79.714539 191.383408 -20.000000 0.434685
-83.311234 189.845383 -20.000000 0.434685
-86.878311 188.239700 -20.000000 0.434685
-89.239105 187.132111 -20.000000 0.434685
-90.414474 186.567001 -20.000000 0.434685
-91.585945 185.994751 -20.000000 0.434685
-93.918213 184.828003 -20.000000 0.434685
-96.235855 183.631912 -20.000000 0.434685
-98.537987 182.406921 -20.000000 0.434685
-100.824654 181.153000 -20.000000 0.434685
-101.961922 180.515335 -20.000000 0.434685
-104.224518 179.218521 -20.000000 0.434685
-106.470688 177.893250 -20.000000 0.434685
-110.911942 175.158707 -20.000000 0.434685
-115.283005 172.313263 -20.000000 0.434685
-119.581047 169.358765 -20.000000 0.434685
-122.755127 167.072479 -20.000000 0.434685
-123.803452 166.297119 -20.000000 0.434685
-124.846817 165.515244 -20.000000 0.434685
-126.918930 163.931686 -20.000000 0.434685
-131.002533 160.687149 -20.000000 0.434685
-133.013474 159.026520 -20.000000 0.434685
-135.003296 157.340851 -20.000000 0.434685
-136.971817 155.630142 -20.000000 0.434685
-137.947906 154.765640 -20.000000 0.434685
-138.918503 153.894989 -20.000000 0.434685
-140.843323 152.135422 -20.000000 0.434685
-141.797333 151.246628 -20.000000 0.434685
-142.745819 150.351761 -20.000000 0.434685
-144.625702 148.544373 -20.000000 0.434685
-146.482758 146.713409 -20.000000 0.434685
-148.316620 144.859253 -20.000000 0.434685
-149.224869 143.923447 -20.000000 0.434685
-150.127045 142.982117 -20.000000 0.434685
-153.676239 139.160507 -20.000000 0.434685
-154.548462 138.191193 -20.000000 0.434685
-156.274521 136.236160 -20.000000 0.434685
-157.975861 134.259628 -20.000000 0.434685
-161.303223 130.243240 -20.000000 0.434685
-166.102051 124.064987 -20.000000 0.434685
-166.879105 123.017815 -20.000000 0.434685
-167.649536 121.965775 -20.000000 0.434685
-168.413330 120.908951 -20.000000 0.434685
-169.920807 118.781082 -20.000000 0.434685
-170.664581 117.709930 -20.000000 0.434685
-171.401459 116.634331 -20.000000 0.434685
-172.131744 115.553856 -20.000000 0.434685
-172.855011 114.469009 -20.000000 0.434685
-174.983948 111.187378 -20.000000 0.434685
-175.679810 110.084633 -20.000000 0.434685
-176.368744 108.977493 -20.000000 0.434685
-177.050613 107.866089 -20.000000 0.434685
-177.725555 106.750404 -20.000000 0.434685
-181.626480 99.969177 -20.000000 0.434685
-182.251648 98.824860 -20.000000 0.434685
-183.480362 96.524506 -20.000000 0.434685
-184.083832 95.368561 -20.000000 0.434685
-184.679962 94.208961 -20.000000 0.434685
-185.850388 91.878441 -20.000000 0.434685
-188.102814 87.174232 -20.000000 0.434685
-189.714111 83.609703 -20.000000 0.434685
-190.236145 82.414902 -20.000000 0.434685
-190.750717 81.216904 -20.000000 0.434685
-191.257797 80.015488 -20.000000 0.434685
-193.210052 75.179123 -20.000000 0.434685
-193.679092 73.962334 -20.000000 0.434685
-194.140427 72.742859 -20.000000 0.434685
-195.478317 69.067024 -20.000000 0.434685
-196.746597 65.366623 -20.000000 0.434685
-198.704666 59.147961 -20.000000 0.434685
-199.072708 57.897179 -20.000000 0.434685
-199.432892 56.644043 -20.000000 0.434685
-200.129608 54.130913 -20.000000 0.434685
-200.466080 52.871204 -20.000000 0.434685
-201.115295 50.345364 -20.000000 0.434685
-201.732651 47.811680 -20.000000 0.434685
-202.029373 46.542000 -20.000000 0.434685
-203.136215 41.445026 -20.000000 0.434685
-204.114517 36.321899 -20.000000 0.434685
-204.338913 35.037518 -20.000000 0.434685
-204.555206 33.751778 -20.000000 0.434685
-204.763458 32.464352 -20.000000 0.434685
-204.963623 31.175962 -20.000000 0.434685
-205.339539 28.595398 -20.000000 0.434685
-205.993896 23.420803 -20.000000 0.434685
-206.272186 20.827982 -20.000000 0.434685
-206.517868 18.231655 -20.000000 0.434685
-206.730850 15.632524 -20.000000 0.434685
-206.825073 14.331935 -20.000000 0.434685
-206.911133 13.030779 -20.000000 0.434685
-206.988968 11.729332 -20.000000 0.434685
-207.173447 7.821829 -20.000000 0.434685
-207.218552 6.518745 -20.000000 0.434685
-207.284149 3.911661 -20.000000 0.434685
-207.316956 1.303944 -20.000000 0.434685
-169.366882 0.000091 -20.000000 0.505516
-169.363342 -1.065267 -20.000000 0.505517
-169.353302 -2.130418 -20.000000 0.505517
-169.313293 -4.260495 -20.000000 0.505516
-169.282944 -5.325198 -20.000000 0.505517
-169.246124 -6.389842 -20.000000 0.505517
-169.095428 -9.581955 -20.000000 0.505517
-169.031982 -10.645212 -20.000000 0.505517
-168.884552 -12.770640 -20.000000 0.505517
-168.710556 -14.893967 -20.000000 0.505517
-168.509872 -17.014923 -20.000000 0.505517
-168.028519 -21.248419 -20.000000 0.505517
-167.891541 -22.304838 -20.000000 0.505517
-167.597717 -24.414845 -20.000000 0.505517
-167.440826 -25.468519 -20.000000 0.505517
-166.930481 -28.623156 -20.000000 0.505517
-166.157623 -32.813316 -20.000000 0.505517
-165.947998 -33.857635 -20.000000 0.505517
-165.731766 -34.900719 -20.000000 0.505517
-165.508987 -35.942444 -20.000000 0.505517
-165.279663 -36.982601 -20.000000 0.505517
-165.043762 -38.021465 -20.000000 0.505517
-164.801392 -39.058708 -20.000000 0.505517
-164.552475 -40.094437 -20.000000 0.505517
-164.035126 -42.161091 -20.000000 0.505517
-163.766693 -43.192017 -20.000000 0.505517
-162.922638 -46.274139 -20.000000 0.505517
-161.387115 -51.373852 -20.000000 0.505517
-160.728195 -53.399765 -20.000000 0.505517
-160.389114 -54.409668 -20.000000 0.505517
-160.043762 -55.417274 -20.000000 0.505517
-158.969727 -58.426975 -20.000000 0.505517
-158.222168 -60.421974 -20.000000 0.505517
-157.838989 -61.415997 -20.000000 0.505517
-157.449646 -62.407478 -20.000000 0.505517
-157.054031 -63.396423 -20.000000 0.505517
-156.244141 -65.366966 -20.000000 0.505517
-154.550385 -69.276634 -20.000000 0.505517
-154.111618 -70.247284 -20.000000 0.505517
-153.215820 -72.180229 -20.000000 0.505517
-152.295746 -74.101822 -20.000000 0.505517
-150.383514 -77.909363 -20.000000 0.505517
-148.886765 -80.732895 -20.000000 0.505517
-148.376099 -81.667686 -20.000000 0.505517
-147.337067 -83.527641 -20.000000 0.505517
-146.808792 -84.452629 -20.000000 0.505517
-146.274780 -85.374237 -20.000000 0.505517
-145.734863 -86.292648 -20.000000 0.505517
-145.189270 -87.207497 -20.000000 0.505517
-143.518097 -89.931290 -20.000000 0.505517
-142.949570 -90.832191 -20.000000 0.505517
-142.375519 -91.729424 -20.000000 0.505517
-141.795731 -92.623146 -20.000000 0.505517
-141.210388 -93.513100 -20.000000 0.505517
-138.813339 -97.035721 -20.000000 0.505517
-138.200317 -97.906784 -20.000000 0.505517
-136.957870 -99.637428 -20.000000 0.505517
-136.328522 -100.496796 -20.000000 0.505517
-135.693741 -101.352280 -20.000000 0.505517
-135.053635 -102.203705 -20.000000 0.505517
-133.101288 -104.733551 -20.000000 0.505517
-132.439987 -105.568581 -20.000000 0.505517
-131.101578 -107.226173 -20.000000 0.505517
-129.055176 -109.680588 -20.000000 0.505517
-127.665314 -111.295280 -20.000000 0.505517
-126.962776 -112.096092 -20.000000 0.505517
-126.255219 -112.892395 -20.000000 0.505517
-124.102837 -115.254356 -20.000000 0.505517
-123.375420 -116.032661 -20.000000 0.505517
-118.149055 -121.350227 -20.000000 0.505517
-115.838516 -123.557724 -20.000000 0.505517
-115.059067 -124.283905 -20.000000 0.505517
-114.275177 -125.005051 -20.000000 0.505517
-110.288216 -128.536285 -20.000000 0.505517
-109.477516 -129.227509 -20.000000 0.505517
-107.843369 -130.594345 -20.000000 0.505517
-105.360184 -132.605835 -20.000000 0.505517
-104.524132 -133.265839 -20.000000 0.505517
-103.683876 -133.920624 -20.000000 0.505517
-102.839554 -134.570068 -20.000000 0.505517
-100.282295 -136.486420 -20.000000 0.505517
-99.421906 -137.114410 -20.000000 0.505517
-97.689331 -138.354156 -20.000000 0.505517
-91.505470 -142.519562 -20.000000 0.505517
-90.607292 -143.092239 -20.000000 0.505517
-86.979126 -145.326248 -20.000000 0.505517
-84.221710 -146.941422 -20.000000 0.505517
-83.295837 -147.468262 -20.000000 0.505517
-79.559814 -149.516922 -20.000000 0.505517
-77.672806 -150.505844 -20.000000 0.505517
-75.773476 -151.470993 -20.000000 0.505517
-74.819298 -151.944550 -20.000000 0.505517
-72.902122 -152.873657 -20.000000 0.505517
-70.004852 -154.221924 -20.000000 0.505517
-68.059433 -155.090271 -20.000000 0.505517
-66.103195 -155.934113 -20.000000 0.505517
-61.167679 -157.935440 -20.000000 0.505517
-60.173122 -158.317017 -20.000000 0.505517
-59.176228 -158.692307 -20.000000 0.505517
-58.176971 -159.061371 -20.000000 0.505517
-54.157375 -160.474457 -20.000000 0.505517
-52.134556 -161.143005 -20.000000 0.505517
-51.119980 -161.467743 -20.000000 0.505517
-43.963982 -163.561157 -20.000000 0.505517
-40.870201 -164.361481 -20.000000 0.505517
-38.799496 -164.862579 -20.000000 0.505517
-37.761845 -165.103348 -20.000000 0.505517
-36.722698 -165.337631 -20.000000 0.505517
-35.682102 -165.565277 -20.000000 0.505517
-34.640087 -165.786423 -20.000000 0.505517
-27.309835 -167.150391 -20.000000 0.505517
-24.151320 -167.635910 -20.000000 0.505517
-23.096531 -167.784470 -20.000000 0.505517
-18.868553 -168.312363 -20.000000 0.505517
-14.628634 -168.733765 -20.000000 0.505517
-11.442489 -168.979736 -20.000000 0.505517
-9.316037 -169.110275 -20.000000 0.505517
-7.188103 -169.214096 -20.000000 0.505517
-0.798932 -169.364838 -20.000000 0.505517
1.331475 -169.361465 -20.000000 0.505517
4.526678 -169.306213 -20.000000 0.505517
9.847805 -169.080170 -20.000000 0.505517
16.219858 -168.588257 -20.000000 0.505517
19.397747 -168.252228 -20.000000 0.505517
20.455584 -168.126877 -20.000000 0.505517
21.512608 -167.994904 -20.000000 0.505517
23.624018 -167.711029 -20.000000 0.505517
24.678404 -167.559097 -20.000000 0.505517
25.731770 -167.400589 -20.000000 0.505517
26.784126 -167.235428 -20.000000 0.505517
27.835396 -167.063660 -20.000000 0.505517
29.934614 -166.700317 -20.000000 0.505517
30.982506 -166.508728 -20.000000 0.505517
33.074520 -166.105881 -20.000000 0.505517
36.202606 -165.452286 -20.000000 0.505517
37.242485 -165.221313 -20.000000 0.505517
41.386898 -164.232193 -20.000000 0.505517
49.594440 -161.942825 -20.000000 0.505517
50.612015 -161.627686 -20.000000 0.505517
53.652462 -160.644028 -20.000000 0.505517
55.668896 -159.956421 -20.000000 0.505517
59.674995 -158.505463 -20.000000 0.505517
62.654896 -157.351349 -20.000000 0.505517
65.612549 -156.141205 -20.000000 0.505517
66.593277 -155.725433 -20.000000 0.505517
67.571381 -155.303513 -20.000000 0.505517
72.421082 -153.102142 -20.000000 0.505517
73.382584 -152.643616 -20.000000 0.505517
74.341148 -152.179047 -20.000000 0.505517
75.296829 -151.708496 -20.000000 0.505517
76.249466 -151.231949 -20.000000 0.505517
77.199142 -150.749374 -20.000000 0.505517
78.145782 -150.260818 -20.000000 0.505517
80.966835 -148.759705 -20.000000 0.505517
81.900887 -148.247513 -20.000000 0.505517
83.759216 -147.205566 -20.000000 0.505517
84.683350 -146.675888 -20.000000 0.505517
85.604210 -146.140320 -20.000000 0.505517
90.156876 -143.376495 -20.000000 0.505517
91.056854 -142.806625 -20.000000 0.505517
92.845947 -141.649963 -20.000000 0.505517
94.620354 -140.470901 -20.000000 0.505517
99.852600 -136.801102 -20.000000 0.505517
102.415871 -134.892822 -20.000000 0.505517
103.262268 -134.246002 -20.000000 0.505517
104.942673 -132.936493 -20.000000 0.505517
107.432182 -130.932831 -20.000000 0.505517
109.070663 -129.571106 -20.000000 0.505517
110.691902 -128.188889 -20.000000 0.505517
